543.1802978515625 -696.0647583007812 -28.9361572265625
490.772705078125 -663.80615234375 -26.7989501953125
464.04437255859375 -643.9812622070312 -28.4439697265625
437.13232421875 -631.5440673828125 -21.649169921875
420.8505859375 -601.9769287109375 -13.7933349609375
406.5008544921875 -572.4149169921875 -10.6590576171875
391.666015625 -542.8516845703125 -6.3394775390625
370.05145263671875 -517.9229736328125 -15.2919921875
337.873046875 -495.827392578125 -16.78271484375
291.355224609375 -478.346435546875 -13.072509765625
270.1217041015625 -419.2425537109375 -25.04833984375
256.8983154296875 -387.3072509765625 -27.2366943359375
240.630126953125 -360.1163330078125 -16.8441162109375
196.04931640625 -342.6405029296875 -17.866455078125
142.4171142578125 -317.387451171875 -5.1561279296875
118.7724609375 -299.712890625 2.4000244140625
96.959716796875 -272.0548095703125 11.4327392578125
79.80810546875 -257.9713134765625 38.1632080078125
34.821533203125 -252.9581298828125 51.61279296875
28.9326171875 -218.9090576171875 74.789794921875
26.67822265625 -171.1417236328125 119.83349609375
-11.483642578125 -118.0631103515625 155.7911376953125
-45.91845703125 -75.0596923828125 193.52783203125
-77.26611328125 -29.3162841796875 220.747314453125
-63.322265625 12.3370361328125 232.7735595703125
-57.5419921875 83.5355224609375 232.81646728515625
-79.0916748046875 142.6402587890625 221.613037109375
-101.969970703125 201.7486572265625 213.656005859375
-99.1033935546875 272.955078125 220.8199462890625
-94.6630859375 344.1571044921875 224.1375732421875
-87.763671875 415.3526611328125 221.4454345703125
-92.9150390625 480.3416748046875 208.1890869140625
-99.4658203125 545.6451416015625 200.346435546875
-85.758544921875 587.2989501953125 212.9503173828125
-78.8544921875 628.9710693359375 242.1796875
-56.823974609375 674.1580810546875 257.2476806640625
-86.32421875 729.7286376953125 242.6695556640625
-59.7716064453125 805.4625244140625 221.3951416015625
-7.6602783203125 866.7564697265625 266.7733154296875
6.669189453125 908.4085693359375 277.856689453125
23.7474365234375 1021.2677001953125 296.3916015625
