518.450439453125 -687.3201904296875 -23.486083984375
477.2991943359375 -669.853515625 -32.889892578125
461.0892333984375 -640.2864990234375 -25.2099609375
450.59375 -624.3961791992188 -16.7183837890625
434.7442626953125 -595.9306640625 -8.7291259765625
420.7091064453125 -566.3695068359375 -6.363525390625
406.9383544921875 -536.80908203125 -4.64404296875
383.81280517578125 -513.30712890625 -19.080810546875
357.73193359375 -488.8724365234375 -20.365234375
321.83721923828125 -466.260986328125 -9.5279541015625
277.182373046875 -448.784912109375 -10.3702392578125
258.4176025390625 -389.6875 -28.3792724609375
214.2005615234375 -372.2125244140625 -30.290771484375
171.022705078125 -337.64471435546875 -14.8370361328125
138.531494140625 -310.3680419921875 -3.2418212890625
120.12255859375 -281.867919921875 2.9329833984375
76.513916015625 -275.4981689453125 19.5831298828125
46.5499267578125 -269.3250732421875 40.6202392578125
35.8388671875 -254.5345458984375 50.828857421875
34.821533203125 -252.9581298828125 51.61279296875
4.805419921875 -227.7799072265625 76.442626953125
2.619873046875 -189.31494140625 107.1583251953125
-34.4300537109375 -130.1685791015625 133.83251953125
-36.0433349609375 -88.4737548828125 183.87548828125
-32.009033203125 -46.7939453125 220.1177978515625
-63.322265625 12.3370361328125 232.7735595703125
-57.5419921875 83.5355224609375 232.81646728515625
-52.25634765625 154.7354736328125 234.06890869140625
-64.035888671875 184.2904052734375 230.922119140625
-87.35791015625 243.4000244140625 224.0498046875
-81.72119140625 314.598876953125 224.443603515625
-76.974365234375 385.80029296875 227.01190185546875
-98.53564453125 444.905029296875 215.8365478515625
-100.6656494140625 511.4114990234375 204.9833984375
-67.45703125 557.7264404296875 200.15869140625
-60.30419921875 599.3978271484375 228.78070068359375
-58.140380859375 652.9735107421875 256.7322998046875
-10.801025390625 689.125 241.562255859375
7.0921630859375 724.2886962890625 202.3858642578125
7.442138671875 795.3006591796875 214.40869140625
