524.6516723632812 -667.3145141601562 -20.8680419921875
515.1072998046875 -636.9424438476562 -24.198486328125
498.60009765625 -607.3746948242188 -15.7921142578125
472.0758056640625 -596.7752685546875 -7.9580078125
443.884765625 -580.430419921875 -2.260986328125
427.67510986328125 -581.14990234375 -7.42041015625
413.26324462890625 -551.5878295898438 -4.13427734375
389.62225341796875 -537.3756713867188 -7.261962890625
347.966552734375 -525.3780517578125 -9.515869140625
298.3121337890625 -509.76177978515625 -10.1552734375
291.355224609375 -478.346435546875 -13.072509765625
277.182373046875 -448.784912109375 -10.3702392578125
233.7086181640625 -431.3118896484375 -14.0982666015625
214.2005615234375 -372.2125244140625 -30.290771484375
158.869384765625 -344.906005859375 -15.6446533203125
142.4171142578125 -317.387451171875 -5.1561279296875
118.7724609375 -299.712890625 2.4000244140625
96.959716796875 -272.0548095703125 11.4327392578125
76.513916015625 -275.4981689453125 19.5831298828125
46.5499267578125 -269.3250732421875 40.6202392578125
34.821533203125 -252.9581298828125 51.61279296875
4.805419921875 -227.7799072265625 76.442626953125
2.619873046875 -189.31494140625 107.1583251953125
-34.4300537109375 -130.1685791015625 133.83251953125
-61.3095703125 -100.5731201171875 167.5859375
-57.8133544921875 -58.891845703125 205.1429443359375
-49.73046875 -17.2230224609375 231.49127197265625
-75.419921875 41.8929443359375 230.40447998046875
-67.8560791015625 113.0867919921875 226.0885009765625
-90.583740234375 172.1944580078125 217.76416015625
-101.969970703125 201.7486572265625 213.656005859375
-99.1033935546875 272.955078125 220.8199462890625
-94.6630859375 344.1571044921875 224.1375732421875
-87.763671875 415.3526611328125 221.4454345703125
-92.9150390625 480.3416748046875 208.1890869140625
-99.4658203125 545.6451416015625 200.346435546875
-85.758544921875 587.2989501953125 212.9503173828125
-60.30419921875 599.3978271484375 228.78070068359375
-58.140380859375 652.9735107421875 256.7322998046875
-39.32177734375 712.2462158203125 237.7745361328125
