-85.1766357421875 516.0831298828125 197.3599853515625
422.5272216796875 -707.0825805664062 -28.11279296875
507.6712646484375 27.4439697265625 50.5396728515625
309.968505859375 -573.05029296875 -1.7772216796875
-19.2501220703125 749.0040283203125 203.53662109375
1014.0435180664062 1361.5223388671875 -305.8621826171875
352.12066650390625 216.27490234375 90.084716796875
209.1522216796875 380.0054931640625 159.3974609375
326.6240234375 208.8212890625 104.149169921875
363.51861572265625 219.7528076171875 84.7325439453125
325.60845947265625 237.490234375 69.1995849609375
244.534423828125 -634.3360595703125 -14.77392578125
352.96832275390625 223.3011474609375 80.4112548828125
348.3978271484375 203.4490966796875 113.065185546875
-116.074951171875 -87.2203369140625 164.83203125
153.924560546875 252.1302490234375 171.440185546875
-318.061767578125 45.9443359375 181.3221435546875
-295.486328125 -96.5443115234375 97.8173828125
451.02490234375 218.56201171875 86.0404052734375
437.9945068359375 -633.2950439453125 -21.864501953125
183.051513671875 197.5836181640625 159.175048828125
379.6768798828125 -341.3443603515625 -12.5689697265625
481.8533935546875 -580.4187622070312 -3.9747314453125
286.335693359375 -564.3087158203125 0.991943359375
-54.44140625 1453.9508056640625 384.4739990234375
-1279.81201171875 406.030029296875 -43.7440185546875
13.554931640625 -105.963134765625 172.63720703125
-25.1685791015625 166.829833984375 245.9068603515625
196.65185546875 -722.15234375 -19.2330322265625
70.9888916015625 850.0025634765625 274.8553466796875
136.8385009765625 -603.8980102539062 -0.7955322265625
191.4686279296875 -710.5 -19.1544189453125
102.5986328125 -104.7969970703125 185.3309326171875
-229.268798828125 -101.9111328125 123.99951171875
18.1500244140625 599.5953369140625 219.0052490234375
45.5484619140625 611.5791015625 230.20391845703125
410.23486328125 62.5435791015625 69.5196533203125
348.522216796875 -639.743408203125 -23.9683837890625
376.52288818359375 -655.7156982421875 -29.603515625
190.6319580078125 -758.9652709960938 -19.4437255859375
-26.4530029296875 1181.1866455078125 337.43798828125
149.856201171875 -740.2774658203125 -21.9276123046875
434.1075439453125 349.0692138671875 78.974365234375
165.515625 -142.3367919921875 159.3651123046875
180.6923828125 382.11181640625 147.7490234375
-32.4969482421875 682.704345703125 253.028564453125
326.4337158203125 -96.3529052734375 138.90869140625
-88.2568359375 1613.1842041015625 381.3643798828125
201.23779296875 -579.7364501953125 -2.102294921875
431.6292724609375 382.470458984375 77.9234619140625
216.181884765625 -573.6930541992188 0.394775390625
196.831298828125 -571.84130859375 0.13916015625
-868.71240234375 -598.8709106445312 -418.6165771484375
1444.5330810546875 1052.5223388671875 -295.347412109375
-194.8896484375 509.3997802734375 199.4354248046875
1390.2835693359375 1170.7618408203125 -290.5064697265625
1562.59033203125 1100.8741455078125 -271.7130126953125
370.6396484375 -282.2733154296875 -54.3492431640625
-52.25634765625 154.7354736328125 234.06890869140625
-452.8447265625 -286.0472412109375 -41.7659912109375
-63.322265625 12.3370361328125 232.7735595703125
49.0335693359375 493.177734375 167.35302734375
76.9381103515625 508.078369140625 174.15771484375
59.041015625 470.9827880859375 166.8746337890625
156.800048828125 -719.4508056640625 -15.845703125
-449.26513671875 442.2686767578125 164.8580322265625
114.6966552734375 447.1171875 155.1734619140625
57.259033203125 -115.1029052734375 166.78857421875
-894.756591796875 -835.5899047851562 -532.5218505859375
298.5035400390625 -736.2930297851562 -25.1473388671875
-16.5435791015625 -373.38238525390625 79.5506591796875
-33.8597412109375 -364.38037109375 81.7825927734375
-857.02392578125 -1094.88134765625 -516.7965087890625
-20.107666015625 -369.11419677734375 83.6541748046875
-999.6142578125 -1005.0470581054688 -479.7705078125
190.348388671875 -583.9185791015625 -2.5006103515625
-1041.562744140625 -933.540283203125 -454.47998046875
553.8555908203125 -710.8551025390625 -39.057373046875
45.4365234375 338.1416015625 161.4532470703125
38.925537109375 315.5096435546875 158.813720703125
507.743408203125 83.8961181640625 80.498291015625
54.525146484375 321.21142578125 157.528564453125
148.0626220703125 -669.05859375 -3.37548828125
224.423095703125 -502.5010986328125 -5.57568359375
66.687744140625 291.6551513671875 159.7391357421875
244.4659423828125 -651.6146240234375 -14.7830810546875
-164.993408203125 521.4866943359375 204.4102783203125
17.3895263671875 -469.0711669921875 47.3546142578125
5.7906494140625 -447.833251953125 59.8360595703125
-100.4229736328125 1642.3021240234375 376.3538818359375
308.354248046875 -679.8670654296875 -19.0853271484375
-6.92333984375 36.5198974609375 251.017333984375
39.8206787109375 252.2911376953125 193.7518310546875
59.71435546875 255.7069091796875 167.3863525390625
196.4210205078125 -443.3790283203125 -1.01123046875
-114.90869140625 1702.4681396484375 354.8133544921875
120.9573974609375 244.6297607421875 169.0179443359375
102.47705078125 205.6180419921875 184.9405517578125
-763.219482421875 -790.2503662109375 -560.9146728515625
-585.27490234375 -430.076416015625 -187.4442138671875
-107.566162109375 -124.783203125 124.5577392578125
135.8680419921875 185.54296875 196.4449462890625
201.6572265625 -498.752197265625 -0.05078125
1063.07763671875 495.807861328125 -284.8466796875
119.92236328125 -609.9361572265625 1.5262451171875
146.6268310546875 -618.68603515625 -8.7491455078125
147.363525390625 -600.2317504882812 -2.821533203125
280.138916015625 -659.7320556640625 -17.4273681640625
163.1866455078125 -612.6468505859375 -10.1998291015625
2168.07275390625 369.929443359375 -232.9671630859375
167.0621337890625 -619.7578125 -11.9903564453125
-206.150146484375 366.668701171875 196.4786376953125
20.929443359375 254.6522216796875 220.52117919921875
-224.09912109375 393.2303466796875 189.1044921875
-236.733154296875 354.916748046875 195.3184814453125
291.19873046875 -478.4100341796875 -13.1004638671875
307.3448486328125 111.224365234375 130.869384765625
523.5963134765625 -616.1199340820312 -21.8929443359375
103.22900390625 -544.7609252929688 17.4716796875
323.74908447265625 69.564208984375 103.12548828125
-400.054443359375 -366.88372802734375 -54.5771484375
-407.15283203125 -370.722412109375 -61.9722900390625
84.6318359375 -553.5921630859375 5.958984375
-134.8553466796875 361.6214599609375 212.3905029296875
-855.896728515625 -625.5464477539062 -425.7855224609375
108.57666015625 -555.274658203125 15.7593994140625
-116.293212890625 -110.3197021484375 130.265625
198.122802734375 -104.6695556640625 175.6375732421875
-11.2724609375 -479.05255126953125 52.8878173828125
-1187.634033203125 -1338.0673828125 -389.1109619140625
1510.196533203125 1503.9652099609375 -214.7333984375
-1223.71533203125 -1255.0208740234375 -390.6568603515625
-1140.723876953125 -1456.287109375 -376.0164794921875
-143.8187255859375 563.1204833984375 198.7662353515625
189.885498046875 -707.3724365234375 -18.6639404296875
-206.392333984375 538.4190673828125 196.1910400390625
-1215.647705078125 -1348.37646484375 -387.2530517578125
1352.844482421875 601.149658203125 -312.3642578125
1327.1170654296875 661.773681640625 -314.9896240234375
1676.926513671875 310.1876220703125 -309.46630859375
-212.1275634765625 467.755126953125 195.4586181640625
-17.851318359375 1109.9493408203125 302.2498779296875
345.46490478515625 115.55517578125 124.11279296875
-446.282470703125 -353.2611083984375 -76.3160400390625
321.83721923828125 -466.260986328125 -9.5279541015625
-239.82080078125 455.662353515625 185.0999755859375
523.5261840820312 322.229248046875 12.0877685546875
445.89306640625 -288.17333984375 -53.513427734375
-232.113037109375 437.6021728515625 185.7763671875
-606.9324951171875 -867.8507690429688 -552.71435546875
1561.439453125 128.2144775390625 -311.1925048828125
-331.20263671875 -292.7342529296875 32.62744140625
-41.928955078125 -327.4049072265625 91.9298095703125
-17.12841796875 -337.773681640625 88.0638427734375
13.4583740234375 -347.3817138671875 62.863525390625
310.668212890625 49.972900390625 97.7940673828125
17.229248046875 -451.893798828125 47.2701416015625
-304.636474609375 -280.638427734375 45.7403564453125
1723.9375 746.1595458984375 -282.810546875
10.951904296875 -453.348388671875 53.173583984375
305.2353515625 -629.4898681640625 -20.3450927734375
337.1690673828125 73.8868408203125 98.2850341796875
-751.662353515625 -623.5189208984375 -404.754638671875
-802.6865234375 -576.5023193359375 -421.9644775390625
14.202880859375 -343.4678955078125 63.1639404296875
549.8388671875 -627.8124389648438 -27.8555908203125
549.62353515625 -624.4678344726562 -27.9473876953125
555.2582397460938 -639.6448974609375 -28.316650390625
-31.46875 1068.2952880859375 289.42596435546875
566.758544921875 -618.8303833007812 -33.3699951171875
428.20867919921875 92.8780517578125 82.9881591796875
551.4248046875 -640.919921875 -27.192138671875
548.46630859375 -624.8648681640625 -27.6854248046875
160.18896484375 -575.3580322265625 2.3995361328125
-326.4912109375 -37.4141845703125 109.7198486328125
216.092529296875 -133.4501953125 162.8011474609375
157.4547119140625 -578.5224609375 1.2840576171875
1733.25390625 1030.9910888671875 -248.9034423828125
261.46337890625 -52.6376953125 146.7762451171875
268.504150390625 -80.524169921875 159.7122802734375
154.2359619140625 13.5419921875 155.1549072265625
233.7584228515625 -92.068359375 169.9847412109375
46.2003173828125 421.9713134765625 160.1085205078125
471.3026123046875 -655.07568359375 -34.2022705078125
462.583251953125 102.933837890625 90.8970947265625
-48.8131103515625 -314.248779296875 94.5433349609375
1146.705810546875 118.8194580078125 -250.211181640625
-232.329345703125 -173.1170654296875 117.309814453125
576.8753662109375 -598.0121459960938 -35.0413818359375
206.519775390625 113.117431640625 193.1153564453125
-232.060546875 -172.991455078125 117.463134765625
165.3486328125 -16.01123046875 159.9305419921875
-300.7449951171875 158.8026123046875 199.2744140625
-244.338134765625 -143.561279296875 114.723876953125
-257.644287109375 -185.2161865234375 101.1395263671875
184.5758056640625 -550.168212890625 6.68212890625
64.66845703125 929.4676513671875 272.1817626953125
208.764892578125 -558.911376953125 2.5537109375
99.9599609375 -343.27703857421875 -10.067626953125
204.77685546875 -550.6425170898438 3.3673095703125
141.708740234375 -610.912841796875 -5.1239013671875
-121.7818603515625 332.062744140625 212.3751220703125
296.0889892578125 -614.70361328125 -13.960205078125
-128.697509765625 260.8673095703125 215.1058349609375
488.816650390625 -625.056640625 -18.327392578125
349.98541259765625 62.3863525390625 79.3673095703125
298.8280029296875 61.8226318359375 113.9459228515625
2226.855712890625 536.5341796875 -192.2120361328125
1136.7613525390625 386.2984619140625 -280.8553466796875
1217.86572265625 7.46484375 -251.9290771484375
831.7357177734375 810.8240966796875 -358.51025390625
1346.071044921875 -86.638671875 -281.43017578125
-18.4454345703125 66.0743408203125 247.24151611328125
1649.4835205078125 1497.7208251953125 -183.9898681640625
1810.126953125 863.2601318359375 -255.5655517578125
314.1162109375 233.7332763671875 72.99072265625
1553.43505859375 1413.9874267578125 -223.2022705078125
-25.33642578125 267.5677490234375 228.55303955078125
533.3421630859375 -186.26708984375 -54.6973876953125
1754.7242431640625 1557.1590576171875 -140.9888916015625
1151.0341796875 1074.0667724609375 -330.1156005859375
-384.84033203125 258.5560302734375 157.9769287109375
-402.135498046875 285.4068603515625 150.8699951171875
-363.794921875 233.3631591796875 166.6168212890625
-377.1376953125 294.4578857421875 148.2608642578125
-1664.705810546875 -1246.605224609375 -415.1422119140625
-21.746826171875 201.3343505859375 237.618408203125
-14.52197265625 137.2779541015625 251.821533203125
-1640.6494140625 -1293.5526123046875 -423.2205810546875
-847.91748046875 -485.03533935546875 -410.23193359375
-1551.322509765625 -1198.240966796875 -380.08544921875
60.92626953125 25.5244140625 237.13995361328125
8.70654296875 -297.7376708984375 60.8646240234375
281.81591796875 -672.2889404296875 -16.727294921875
12.966064453125 -327.6617431640625 79.8917236328125
539.8985595703125 -574.47314453125 -15.630126953125
1645.721435546875 -393.05560302734375 -318.3682861328125
15.6480712890625 -311.9173583984375 63.720703125
379.21044921875 -706.0917358398438 -27.288818359375
-335.912841796875 146.7298583984375 207.18115234375
278.3828125 -656.3467407226562 -16.7923583984375
414.1614990234375 269.96630859375 62.6080322265625
364.1053466796875 -712.134765625 -29.392822265625
-372.359130859375 367.5633544921875 162.9649658203125
-332.36962890625 348.1954345703125 162.994873046875
1690.260498046875 454.0684814453125 -304.1676025390625
185.2607421875 -10.0184326171875 150.0487060546875
215.3094482421875 -33.501708984375 147.8062744140625
203.8681640625 -508.94866943359375 2.9495849609375
450.187744140625 -554.2814331054688 -0.367431640625
-284.6180419921875 122.4478759765625 199.138916015625
171.9927978515625 -45.5526123046875 175.6268310546875
333.49029541015625 -389.01458740234375 -30.394775390625
466.55792236328125 -548.2418212890625 -1.3548583984375
446.71337890625 -555.7149658203125 -1.1304931640625
63.263671875 -476.9285888671875 -3.711669921875
-1343.596923828125 472.7049560546875 -32.756591796875
84.746337890625 -485.6644287109375 -1.2265625
-330.176025390625 411.6593017578125 180.178466796875
-290.0853271484375 401.939697265625 183.7979736328125
176.088623046875 -642.2049560546875 -9.79638671875
179.43115234375 -778.4758911132812 -6.754638671875
183.1927490234375 -266.62939453125 -23.0281982421875
65.078857421875 53.5621337890625 238.8084716796875
-103.5020751953125 -338.436279296875 72.1209716796875
1080.115234375 907.4945068359375 -341.213134765625
-1199.990966796875 -980.129150390625 -381.250244140625
192.4281005859375 -268.7655029296875 -24.8800048828125
471.83270263671875 -246.0433349609375 -67.536376953125
281.49755859375 -76.3427734375 155.0006103515625
176.66650390625 -265.3463134765625 -8.4490966796875
-307.08251953125 87.6053466796875 200.5928955078125
382.60400390625 -670.4937744140625 -28.49755859375
379.577880859375 -671.6353759765625 -28.4761962890625
1508.6046142578125 1788.8255615234375 -154.169921875
388.126220703125 -685.2703247070312 -26.0262451171875
310.242919921875 -436.7064208984375 -13.1273193359375
394.8914794921875 -700.05029296875 -26.5924072265625
-746.209228515625 -815.4627075195312 -575.263427734375
161.1629638671875 -769.303466796875 -14.2403564453125
442.4752197265625 -717.5341796875 -32.907470703125
397.39996337890625 -664.449951171875 -25.63818359375
406.20263671875 -607.4322509765625 -17.6513671875
311.390380859375 -644.2681274414062 -19.420166015625
398.7037353515625 -593.2393188476562 -14.655517578125
416.91455078125 -593.5452270507812 -13.2830810546875
406.518310546875 -608.02197265625 -17.7861328125
405.8199462890625 -608.28955078125 -17.8070068359375
215.7982177734375 -609.2990112304688 -5.7515869140625
420.8505859375 -601.9769287109375 -13.7933349609375
517.957275390625 -227.9163818359375 -63.2015380859375
424.30267333984375 -1532.0640869140625 208.5933837890625
366.725341796875 -383.0003662109375 -27.0203857421875
189.8648681640625 339.9932861328125 170.8626708984375
78.3370361328125 -153.0167236328125 156.226318359375
173.9644775390625 300.83544921875 179.5872802734375
543.2444458007812 -660.4578857421875 -22.0087890625
149.5679931640625 357.457763671875 159.37060546875
737.2890625 614.8875732421875 -280.2850341796875
-10.144775390625 1252.3568115234375 311.7545166015625
-270.39306640625 -46.5723876953125 136.1407470703125
158.70654296875 328.586669921875 173.3131103515625
-262.419189453125 -42.7752685546875 141.1446533203125
-293.36181640625 -43.7757568359375 126.7384033203125
580.4012451171875 -648.3904418945312 -34.7762451171875
574.3025512695312 -633.6124267578125 -35.8388671875
187.1494140625 -514.5682373046875 7.477294921875
274.224365234375 -691.942626953125 -13.714599609375
24.42578125 783.7391357421875 186.8687744140625
-932.631591796875 -772.582763671875 -479.0850830078125
-191.392822265625 -301.889892578125 65.241455078125
434.0810546875 -702.7498779296875 -28.3604736328125
-621.88818359375 -801.0078125 -530.2906494140625
413.62060546875 -267.94384765625 -66.741943359375
-651.9285888671875 -778.8739624023438 -536.72265625
248.6309814453125 -597.219970703125 -7.9521484375
172.951171875 133.2835693359375 213.8590087890625
150.8505859375 256.7166748046875 174.000732421875
-65.564697265625 -349.33331298828125 82.2818603515625
-78.341796875 -110.4146728515625 145.7960205078125
-61.3095703125 -100.5731201171875 167.5859375
154.150390625 -597.86083984375 -4.084228515625
-82.13623046875 -112.684326171875 140.447021484375
-529.287353515625 -318.32574462890625 -93.4071044921875
-84.442626953125 -110.1043701171875 143.2991943359375
73.8604736328125 -405.742919921875 -15.4388427734375
-104.777587890625 -88.2891845703125 169.456298828125
-206.2374267578125 -161.0198974609375 131.5821533203125
-186.227783203125 -152.7298583984375 136.1964111328125
331.84912109375 -300.27783203125 -31.1636962890625
-217.890380859375 568.5084228515625 191.777587890625
-56.20556640625 255.4835205078125 225.95526123046875
-594.17578125 -538.7716674804688 -243.375
251.066650390625 -683.2022705078125 -12.1068115234375
267.7796630859375 -677.16357421875 -13.9317626953125
250.5843505859375 -681.982421875 -12.2459716796875
40.731201171875 419.797607421875 159.4381103515625
20.066162109375 -433.391357421875 48.4107666015625
-28.5029296875 -457.5577392578125 63.0645751953125
495.3653564453125 -710.799072265625 -32.8046875
-6.6552734375 -459.3846435546875 57.1842041015625
-4.7265625 -462.2347412109375 55.5479736328125
-50.242919921875 257.7301025390625 225.8955078125
-45.4794921875 225.931396484375 231.67608642578125
177.537109375 -77.0472412109375 181.4639892578125
325.925537109375 -595.9847412109375 -16.01220703125
447.02801513671875 -716.1890258789062 -35.3280029296875
-37.78076171875 228.742919921875 231.0269775390625
100.1102294921875 -525.3506469726562 9.8367919921875
-37.2568359375 292.1107177734375 231.17193603515625
106.8641357421875 -323.7838134765625 -2.4466552734375
-108.498291015625 542.4456787109375 201.744140625
78.39013671875 262.1004638671875 163.0740966796875
37.526123046875 920.4927978515625 280.48431396484375
0.5478515625 -186.4766845703125 109.157470703125
-54.3963623046875 326.692626953125 235.7021484375
-39.9713134765625 297.130615234375 232.3839111328125
80.291015625 -521.2594604492188 2.576904296875
62.5028076171875 463.6181640625 166.3704833984375
164.38818359375 -113.1236572265625 176.1229248046875
369.9501953125 -727.6363525390625 -32.3543701171875
370.75048828125 -724.7279052734375 -32.0301513671875
-158.626220703125 -62.294677734375 181.8946533203125
-767.63427734375 -1193.188720703125 -479.0709228515625
94.090576171875 -515.2129516601562 7.87109375
90.841796875 -500.4423828125 -0.1558837890625
-160.91748046875 662.6373291015625 214.6636962890625
480.866943359375 294.12158203125 55.6658935546875
333.84564208984375 -323.8651123046875 -10.5367431640625
428.1842041015625 309.629638671875 76.59375
109.9322509765625 -509.171875 8.17529296875
227.3779296875 -710.067626953125 -16.285400390625
234.400390625 -724.8482055664062 -17.479736328125
-768.15576171875 -1190.849853515625 -480.3250732421875
241.187255859375 -722.0570678710938 -16.04736328125
212.19921875 -716.1104736328125 -18.2095947265625
219.5810546875 -695.2849731445312 -13.19775390625
444.9566650390625 -1576.4046630859375 206.0196533203125
341.59893798828125 -705.8438110351562 -26.7288818359375
347.953857421875 -718.1749267578125 -28.939697265625
336.3216552734375 -722.5651245117188 -28.8701171875
340.3544921875 -703.392822265625 -26.3355712890625
324.64697265625 -709.4342041015625 -26.9676513671875
-646.7833251953125 -720.1207275390625 -465.6766357421875
1619.26318359375 1837.1971435546875 -112.45458984375
-786.710205078125 -760.6638793945312 -535.4434814453125
107.40283203125 -494.4031982421875 -1.6099853515625
101.4359130859375 -479.6256103515625 -2.994384765625
-321.3270263671875 -34.5926513671875 115.2845458984375
1645.8477783203125 -255.4962158203125 -321.5634765625
93.09228515625 404.489013671875 155.4835205078125
1348.165283203125 462.3372802734375 -306.157470703125
410.185302734375 -729.6146850585938 -32.03369140625
209.336181640625 306.404296875 159.5535888671875
1337.583740234375 1573.8533935546875 -232.779541015625
24.057861328125 -516.6492919921875 -1.6180419921875
-162.339111328125 -291.3988037109375 74.0035400390625
976.9022216796875 1143.9593505859375 -344.44873046875
498.83746337890625 -642.9822998046875 -23.4561767578125
166.6263427734375 428.6260986328125 131.8541259765625
293.04052734375 -314.0350341796875 -12.5272216796875
-11.7379150390625 -302.1810302734375 81.9754638671875
29.188720703125 730.5426025390625 188.8763427734375
228.9654541015625 286.4549560546875 133.1055908203125
345.5458984375 -596.585693359375 -17.769287109375
370.22479248046875 287.4404296875 60.01171875
-37.7969970703125 -310.2275390625 93.6019287109375
18.717529296875 760.4100341796875 184.55859375
-32.7630615234375 713.9127197265625 232.5478515625
-2.0777587890625 -331.73046875 90.301025390625
344.613525390625 -632.190185546875 -22.5748291015625
227.0072021484375 352.0606689453125 158.1304931640625
327.9259033203125 -638.22900390625 -20.8115234375
355.271484375 -615.3826904296875 -21.233154296875
320.6771240234375 -623.44775390625 -19.063720703125
352.81005859375 -611.366943359375 -19.5545654296875
1279.5899658203125 1692.1029052734375 -218.788818359375
272.3583984375 203.6961669921875 116.450927734375
55.072998046875 706.8037109375 195.099853515625
35.2611083984375 807.5679931640625 225.77911376953125
-733.968505859375 -736.47119140625 -508.2618408203125
-402.077880859375 -216.1407470703125 31.9959716796875
566.1162109375 -669.1973876953125 -22.918212890625
-625.962646484375 -743.2191772460938 -491.6334228515625
8.1378173828125 795.4998779296875 213.9986572265625
61.843994140625 677.2620849609375 210.4853515625
58.135498046875 -12.4849853515625 236.03955078125
560.2808837890625 -654.4200439453125 -24.62451171875
169.096923828125 -591.8173828125 -1.5924072265625
22.6251220703125 593.986083984375 214.123291015625
58.6539306640625 191.6236572265625 201.5252685546875
50.0701904296875 641.662841796875 232.02130126953125
55.865478515625 460.984619140625 165.586181640625
-577.826171875 -455.434326171875 -191.127197265625
-586.259521484375 -459.95831298828125 -199.677734375
430.1915283203125 -496.7152099609375 -25.2073974609375
464.469482421875 222.951416015625 81.5679931640625
233.52392578125 -95.1236572265625 169.8922119140625
82.2696533203125 124.4573974609375 211.262939453125
271.0445556640625 -641.5653076171875 -14.825927734375
1223.35498046875 54.533935546875 -258.4146728515625
584.86865234375 537.0081787109375 -187.910400390625
-99.1033935546875 272.955078125 220.8199462890625
545.0738525390625 -731.6768798828125 -40.6475830078125
280.181884765625 -655.7630615234375 -17.4141845703125
319.350830078125 -620.806884765625 -18.67529296875
-200.869873046875 -124.706298828125 130.173828125
597.26220703125 477.9281005859375 -154.3321533203125
279.6702880859375 -620.7431640625 -12.854248046875
288.5018310546875 -617.5884399414062 -14.0513916015625
-866.220947265625 -81.47998046875 30.3668212890625
284.67236328125 -629.5146484375 -15.6053466796875
-637.8861083984375 -729.7510375976562 -477.0284423828125
131.054931640625 -331.193359375 -8.0213623046875
264.0975341796875 -626.784912109375 -13.8153076171875
1897.197021484375 970.7242431640625 -220.05322265625
-591.072021484375 -860.1375732421875 -541.7315673828125
452.01708984375 -696.5913696289062 -33.3079833984375
271.8330078125 -605.96044921875 -9.668701171875
868.3425903320312 692.6318359375 -320.2374267578125
11.812744140625 -58.84912109375 217.134521484375
94.3912353515625 203.0103759765625 187.8365478515625
100.3228759765625 173.47119140625 205.2735595703125
56.35302734375 190.9454345703125 202.758056640625
-850.25244140625 -49.9886474609375 36.866943359375
960.2322387695312 726.3145751953125 -327.1854248046875
76.861328125 165.1763916015625 209.0050048828125
111.7032470703125 446.1297607421875 156.1041259765625
38.5087890625 90.255615234375 264.12762451171875
217.202392578125 240.19921875 128.3426513671875
10.9337158203125 -513.8932495117188 27.5106201171875
1875.36767578125 949.8587646484375 -228.963134765625
560.2304077148438 -671.5235595703125 -23.5552978515625
330.586181640625 134.1944580078125 140.3548583984375
558.8267822265625 -654.8958740234375 -24.1478271484375
-45.4593505859375 1367.6529541015625 364.64471435546875
-349.2587890625 -191.9483642578125 58.9874267578125
-488.28466796875 -224.308837890625 -21.8338623046875
-68.3662109375 285.0396728515625 223.7398681640625
300.5625 -335.94287109375 -7.2354736328125
-106.351806640625 -267.2147216796875 93.25341796875
1261.427734375 -241.2603759765625 -271.875
260.931396484375 -662.3834838867188 -13.162841796875
22.45654296875 -310.9510498046875 53.3966064453125
-91.8837890625 -296.77685546875 89.8299560546875
478.51165771484375 -640.02001953125 -22.5279541015625
-849.456298828125 -113.94384765625 2.7603759765625
507.26165771484375 -622.15966796875 -20.9921875
82.580078125 -313.70684814453125 0.4716796875
319.9434814453125 -553.9404296875 -1.2547607421875
-1542.645751953125 -1214.986572265625 -383.2022705078125
462.0609130859375 -675.8961791992188 -34.668701171875
16.6378173828125 -296.1737060546875 51.64990234375
1055.756103515625 290.2056884765625 -258.02197265625
67.1959228515625 -492.30712890625 -1.2432861328125
-175.4581298828125 287.858642578125 209.124755859375
407.17144775390625 -270.2042236328125 -65.5894775390625
114.41455078125 -337.2322998046875 -6.373779296875
-1424.3212890625 416.79638671875 -66.602294921875
677.91552734375 502.0460205078125 -195.3590087890625
-74.177001953125 -84.76953125 181.974609375
-17.2977294921875 -66.3072509765625 205.2303466796875
-45.91845703125 -75.0596923828125 193.52783203125
5.130859375 -551.0233154296875 -9.3255615234375
-1146.305908203125 -1593.694580078125 -358.6082763671875
-347.900634765625 306.5465087890625 154.8475341796875
434.7442626953125 -595.9306640625 -8.7291259765625
442.21673583984375 -610.71240234375 -11.0234375
-129.3121337890625 189.6549072265625 202.4395751953125
312.7666015625 -537.4508056640625 -1.5311279296875
551.7462768554688 -590.6541748046875 -27.1158447265625
550.5037231445312 -589.2633056640625 -25.580078125
551.2805786132812 -606.487060546875 -27.2889404296875
-26.417724609375 498.98095703125 166.3753662109375
559.5935668945312 -604.0494384765625 -31.8267822265625
-7.255615234375 540.2083740234375 163.0101318359375
183.4910888671875 -167.166259765625 142.2415771484375
-115.08447265625 231.3072509765625 213.77197265625
165.868408203125 -279.00537109375 -12.852783203125
329.6611328125 -602.6265869140625 -17.9677734375
80.685302734375 -370.154052734375 -25.0328369140625
166.6015625 55.1993408203125 171.0374755859375
86.6348876953125 -399.5701904296875 -17.0433349609375
-309.267822265625 188.3489990234375 188.1693115234375
-98.53564453125 444.905029296875 215.8365478515625
284.8856201171875 -561.644775390625 1.6585693359375
385.50244140625 198.8289794921875 118.474365234375
177.136474609375 -518.0767822265625 9.2718505859375
-657.4114990234375 -741.86572265625 -507.3465576171875
216.2100830078125 -538.0859375 7.4105224609375
474.8746337890625 49.3568115234375 61.4832763671875
-15.996826171875 552.9825439453125 170.5804443359375
-197.2664794921875 25.6304931640625 200.48828125
-279.1328125 -124.8079833984375 98.1475830078125
-767.011474609375 -739.945068359375 -514.85400390625
-375.90869140625 -268.1295166015625 24.2003173828125
424.99578857421875 201.72509765625 109.90966796875
-251.0201416015625 313.2645263671875 184.1309814453125
-291.3140869140625 330.72900390625 172.6322021484375
242.571533203125 121.0203857421875 187.5555419921875
-319.92529296875 318.638671875 164.5169677734375
258.41162109375 160.3060302734375 179.7962646484375
224.137939453125 180.1168212890625 168.7371826171875
-198.2403564453125 10.4765625 200.1063232421875
-411.71923828125 -257.8785400390625 9.5347900390625
441.46624755859375 -575.1033935546875 -2.1055908203125
318.757568359375 -569.716552734375 -1.7227783203125
1847.020751953125 1079.3541259765625 -214.7843017578125
1919.098876953125 -11.5958251953125 -305.4847412109375
135.812255859375 183.671142578125 198.6058349609375
1795.9471435546875 -59.9339599609375 -316.6702880859375
1733.761962890625 1600.7022705078125 -136.7977294921875
152.604736328125 -124.1783447265625 171.31298828125
-332.83984375 -150.3017578125 64.9649658203125
1428.5093994140625 79.902587890625 -298.4822998046875
201.4268798828125 -544.1298828125 4.5194091796875
90.2347412109375 -35.890869140625 214.6983642578125
-81.72119140625 314.598876953125 224.443603515625
560.8701171875 -725.6751098632812 -40.4854736328125
1374.0689697265625 200.0791015625 -295.26953125
1374.934814453125 198.1402587890625 -295.290771484375
1507.901611328125 246.4520263671875 -308.09130859375
-30.726318359375 -272.6148681640625 96.4541015625
1374.237548828125 197.890869140625 -295.1982421875
1237.4163818359375 149.8406982421875 -271.368408203125
92.35498046875 214.1326904296875 180.7890625
402.7374267578125 -405.3624267578125 -36.542236328125
-21.9764404296875 -326.90777587890625 88.747314453125
369.2066650390625 -587.2894287109375 -15.5615234375
-1491.840576171875 -1316.494384765625 -397.7125244140625
360.637939453125 -554.935546875 -8.5487060546875
435.92572021484375 110.123291015625 91.0516357421875
646.357666015625 -1856.523681640625 244.22601318359375
469.552734375 -690.677978515625 -37.0103759765625
-22.710205078125 -393.95196533203125 70.4952392578125
61.531494140625 -473.13006591796875 -3.5823974609375
451.843505859375 -679.563720703125 -33.397705078125
-195.24951171875 94.2833251953125 193.3369140625
-147.9002685546875 391.1798095703125 212.3360595703125
-346.1629638671875 -263.170654296875 37.253662109375
336.90966796875 -617.4077758789062 -19.715087890625
-119.168212890625 403.2698974609375 220.15631103515625
321.74139404296875 145.142333984375 150.15380859375
-142.19775390625 462.3785400390625 212.5689697265625
-23.340087890625 -422.8590087890625 66.8218994140625
1791.9053955078125 1197.5958251953125 -207.828125
1722.4498291015625 -226.4991455078125 -321.4674072265625
-219.29736328125 66.132080078125 191.4283447265625
9.4339599609375 -489.8365478515625 44.121826171875
13.989013671875 -488.9635009765625 38.6678466796875
410.7711181640625 -1502.5042724609375 209.7283935546875
164.4139404296875 -698.6259765625 -11.401123046875
66.9483642578125 137.0550537109375 273.984375
219.2332763671875 37.701904296875 152.3865966796875
-387.30517578125 193.7474365234375 190.87109375
72.4866943359375 -355.3704833984375 -20.9637451171875
2012.536865234375 1009.4847412109375 -179.396240234375
46.496826171875 155.1431884765625 265.595458984375
646.068115234375 492.47412109375 -179.47021484375
483.52362060546875 -576.6278686523438 -3.29541015625
2173.969482421875 654.7698974609375 -190.7030029296875
479.096923828125 -544.0882568359375 -5.142578125
1841.403564453125 794.5130615234375 -257.7310791015625
492.7117919921875 134.3052978515625 108.3492431640625
-933.010009765625 -696.0352172851562 -429.792724609375
2009.512451171875 724.6365966796875 -228.6790771484375
59.67431640625 -512.52587890625 -2.0252685546875
61.5096435546875 -477.5726318359375 -3.58642578125
448.63568115234375 -1557.488525390625 207.770263671875
70.756103515625 -507.9813232421875 0.2308349609375
45.997314453125 -482.9658203125 -0.5347900390625
350.55029296875 -630.0335083007812 -23.1490478515625
-433.0810546875 -269.9154052734375 -16.3751220703125
1999.845703125 1037.0133056640625 -178.1204833984375
232.317626953125 -532.045654296875 7.0645751953125
691.0770263671875 442.9637451171875 -163.6573486328125
243.003662109375 -545.5822143554688 4.9593505859375
231.39111328125 -516.181640625 0.417236328125
-360.1893310546875 -269.5096435546875 30.6343994140625
53.79052734375 167.7977294921875 234.063720703125
-8.5067138671875 585.652099609375 208.1121826171875
-1520.316162109375 -1185.5760498046875 -374.0966796875
-281.8289794921875 -126.1043701171875 96.3751220703125
227.595703125 -517.2713623046875 2.6378173828125
208.009033203125 -516.9851684570312 4.6529541015625
213.5234375 -521.9285888671875 6.9150390625
1666.8756103515625 167.758056640625 -313.4229736328125
-70.9462890625 421.0604248046875 217.24407958984375
-84.5751953125 449.531982421875 211.6357421875
-423.4150390625 -341.15533447265625 -54.164306640625
-402.1019287109375 -329.04541015625 -28.2144775390625
1761.734375 343.108154296875 -304.119384765625
381.84552001953125 -412.5643310546875 -32.037353515625
53.457763671875 356.4305419921875 164.7156982421875
-203.507080078125 23.0914306640625 199.34765625
-285.5919189453125 -253.6455078125 61.143310546875
-254.69091796875 -250.9197998046875 73.7855224609375
154.2200927734375 -370.63507080078125 -24.2333984375
528.5440673828125 -740.3272705078125 -36.4461669921875
-267.6668701171875 -226.8798828125 79.5311279296875
-180.9014892578125 -261.8253173828125 87.432373046875
-278.1429443359375 -268.5423583984375 59.031005859375
171.61865234375 -362.63739013671875 -27.6590576171875
165.962158203125 -390.4091796875 -29.943359375
-308.7384033203125 186.1998291015625 189.198486328125
-1311.082763671875 536.3748779296875 -17.0234375
2120.591552734375 773.0069580078125 -187.991943359375
518.1002197265625 -687.4590454101562 -23.5269775390625
-110.30322265625 302.5084228515625 216.256591796875
331.7977294921875 -294.3363037109375 -37.46435546875
1497.9052734375 934.2855224609375 -298.0443115234375
4.55712890625 -314.1309814453125 76.435791015625
-269.8082275390625 -155.6600341796875 98.9324951171875
306.484130859375 174.7066650390625 155.5057373046875
270.859375 -570.3507080078125 -0.204833984375
295.8961181640625 171.498291015625 160.6207275390625
633.9066162109375 -1826.966796875 242.7205810546875
318.4703369140625 -264.91650390625 -36.6773681640625
166.791015625 165.0567626953125 211.3033447265625
23.63671875 -488.9365234375 15.430419921875
295.757080078125 136.9403076171875 160.601806640625
391.666015625 -542.8516845703125 -6.3394775390625
-125.091552734375 88.9061279296875 209.889404296875
311.21484375 -696.478271484375 -21.921630859375
-173.929931640625 135.9166259765625 187.3389892578125
1777.1240234375 627.9229736328125 -285.053955078125
295.039306640625 6.8822021484375 91.44580078125
171.7388916015625 -643.89013671875 -10.050048828125
35.14990234375 807.5496826171875 225.733642578125
325.210205078125 -296.2705078125 -33.8848876953125
283.85009765625 -309.176025390625 -16.29345703125
314.4853515625 -677.7841796875 -20.603759765625
252.2193603515625 -288.9334716796875 -30.9959716796875
-581.464111328125 -532.210205078125 -232.1385498046875
144.4610595703125 -362.72857666015625 -21.5211181640625
168.0345458984375 -556.2073974609375 8.087646484375
-570.61865234375 -526.667724609375 -222.90869140625
220.3583984375 -63.0386962890625 167.4005126953125
160.880859375 -541.4266357421875 9.60302734375
285.270263671875 -671.126953125 -17.6573486328125
-760.8857421875 -707.4154663085938 -477.8804931640625
-794.509521484375 -751.6656494140625 -526.0938720703125
-737.915771484375 -732.4480590820312 -502.9559326171875
475.12432861328125 301.8948974609375 61.308349609375
1317.1463623046875 -27.5140380859375 -274.6114501953125
371.755126953125 -726.9169311523438 -32.1204833984375
383.023681640625 -630.5682983398438 -27.1112060546875
361.3223876953125 -626.1514892578125 -24.39013671875
399.72515869140625 -628.8490600585938 -24.235595703125
377.53857421875 -620.1114501953125 -25.001220703125
384.87188720703125 -634.892822265625 -26.9554443359375
369.36248779296875 -640.934814453125 -28.0716552734375
394.354736328125 -618.31689453125 -22.4876708984375
583.9808959960938 -663.1618041992188 -27.5577392578125
383.0006103515625 -635.625732421875 -27.114990234375
391.433349609375 -649.6721801757812 -27.0238037109375
155.99755859375 126.44189453125 211.1192626953125
-103.6990966796875 -41.4124755859375 207.308837890625
1708.835693359375 461.3438720703125 -302.5797119140625
-713.552978515625 -726.3661499023438 -492.992919921875
-689.805419921875 -743.2763061523438 -517.7589111328125
-130.951904296875 -53.5064697265625 195.8734130859375
504.03741455078125 207.5010986328125 107.7459716796875
498.12939453125 205.5047607421875 109.2781982421875
232.2706298828125 -603.2596435546875 -6.98876953125
184.6253662109375 -603.6968994140625 -4.82080078125
192.2996826171875 -636.1648559570312 -10.3948974609375
216.733154296875 147.259765625 197.2574462890625
497.81512451171875 209.989013671875 105.197021484375
185.1329345703125 -621.3839111328125 -8.8475341796875
-185.2911376953125 165.4708251953125 183.1697998046875
193.328369140625 -600.5606079101562 -5.824462890625
-267.401123046875 236.101318359375 171.55712890625
-605.8017578125 -622.1217041015625 -307.1661376953125
-258.668701171875 254.59228515625 175.1102294921875
-240.32861328125 212.498291015625 175.7677001953125
-92.9259033203125 0.249267578125 227.0831298828125
248.87841796875 -560.733154296875 4.1741943359375
249.4041748046875 214.5596923828125 107.0457763671875
-121.5382080078125 -11.8411865234375 218.9700927734375
498.64154052734375 235.02685546875 76.094482421875
463.4647216796875 216.380615234375 91.1334228515625
371.7974853515625 -483.7513427734375 -21.651123046875
462.98760986328125 193.431884765625 117.1217041015625
979.7932739257812 1428.8077392578125 -294.8404541015625
-759.581298828125 -707.1171875 -477.3470458984375
-101.2884521484375 -45.0443115234375 205.3392333984375
-217.21875 -131.4669189453125 126.485107421875
40.9757080078125 -51.5296630859375 229.0604248046875
469.98089599609375 114.7581787109375 93.911376953125
303.685302734375 -342.169921875 -8.140380859375
1649.157958984375 -116.0467529296875 -320.3616943359375
-18.205078125 1038.7362060546875 288.94580078125
343.556884765625 -5.022216796875 76.810546875
-41.7152099609375 1026.6322021484375 268.36474609375
528.4814453125 276.542724609375 48.668212890625
57.783203125 -10.3616943359375 235.8931884765625
495.22686767578125 264.5594482421875 52.5067138671875
300.48193359375 -739.7340087890625 -26.2662353515625
897.04296875 372.9857177734375 -227.1160888671875
925.3094482421875 313.863037109375 -232.3267822265625
342.3201904296875 -26.864501953125 103.460693359375
886.5013427734375 301.276611328125 -218.8809814453125
-31.1453857421875 1003.6202392578125 267.39422607421875
451.2869873046875 -662.5614013671875 -33.64404296875
429.95941162109375 -652.3701171875 -27.170654296875
-3.8878173828125 107.7257080078125 257.76751708984375
-730.24072265625 -700.2673950195312 -465.3480224609375
118.609130859375 -574.3255615234375 11.8193359375
247.8341064453125 -526.6981811523438 3.70947265625
131.3260498046875 -587.3839111328125 7.8529052734375
104.5142822265625 -580.3712158203125 7.246826171875
127.0386962890625 -553.5029296875 14.2705078125
-468.283447265625 -434.57525634765625 -116.9254150390625
111.535400390625 -559.544921875 13.139404296875
982.8615112304688 333.1175537109375 -248.4888916015625
1184.697021484375 -71.3646240234375 -234.4556884765625
989.4876708984375 267.0538330078125 -245.7049560546875
1894.953369140625 676.2755126953125 -260.862060546875
974.3507690429688 389.7772216796875 -252.0338134765625
-47.819580078125 -171.8233642578125 120.4521484375
503.2164306640625 -726.861083984375 -34.640625
294.0316162109375 -41.6839599609375 125.5892333984375
489.0494384765625 -735.0155029296875 -36.756103515625
495.449951171875 -749.79443359375 -36.430908203125
-681.6973876953125 -753.9677734375 -526.0325927734375
527.0697631835938 -737.712158203125 -35.667724609375
483.0697021484375 -720.23779296875 -38.1094970703125
425.1434326171875 -430.036865234375 -27.879150390625
511.81048583984375 -708.1477661132812 -30.310791015625
496.89739990234375 -714.1912841796875 -32.8839111328125
418.0650634765625 -708.79052734375 -28.2392578125
412.33050537109375 -734.2618408203125 -32.2557373046875
997.2352294921875 338.0042724609375 -252.0260009765625
-47.1181640625 427.410888671875 200.1531982421875
-355.775390625 226.1226806640625 169.9063720703125
-357.6585693359375 235.3585205078125 164.5244140625
-41.830810546875 -203.1424560546875 126.336181640625
1159.3203125 1358.9010009765625 -293.6907958984375
388.107421875 -442.1046142578125 -15.407470703125
-24.094482421875 401.897216796875 201.9351806640625
261.45263671875 -50.9818115234375 145.01171875
1278.110595703125 1407.2508544921875 -271.8468017578125
971.6075439453125 1283.2882080078125 -323.141845703125
1324.384033203125 1004.1761474609375 -313.8704833984375
93.1229248046875 -464.841552734375 1.353759765625
1096.720947265625 1192.3062744140625 -325.119140625
-422.7332763671875 -302.5377197265625 -29.4259033203125
557.18896484375 -178.0472412109375 -59.843994140625
18.3095703125 696.6153564453125 218.964111328125
9.0325927734375 708.09326171875 215.1551513671875
336.56414794921875 0.857666015625 73.9425048828125
-1217.688232421875 430.1976318359375 -39.489990234375
198.421875 -686.550048828125 -16.4737548828125
-1265.717529296875 447.682861328125 -32.08642578125
374.0079345703125 86.4036865234375 89.1712646484375
490.772705078125 -663.80615234375 -26.7989501953125
421.80828857421875 73.2838134765625 74.243896484375
383.81280517578125 -513.30712890625 -19.080810546875
-745.642822265625 -764.4918823242188 -540.5850830078125
1091.994873046875 370.6053466796875 -272.8758544921875
135.264404296875 -329.6082763671875 -8.0697021484375
211.4693603515625 -472.94287109375 -5.8526611328125
89.3775634765625 -115.5948486328125 179.9324951171875
70.8677978515625 -118.824462890625 172.361572265625
-148.72802734375 -61.7801513671875 185.9444580078125
87.058837890625 -111.3494873046875 181.0140380859375
92.5760498046875 -555.1831665039062 9.2115478515625
-72.064453125 -37.88623046875 217.2901611328125
18.356689453125 248.1812744140625 219.4754638671875
-344.63623046875 -266.385498046875 36.9954833984375
150.613525390625 -592.2490234375 -1.5003662109375
106.9547119140625 -140.9263916015625 164.3265380859375
-15.958251953125 -444.597900390625 63.951416015625
-107.83349609375 688.095703125 249.1317138671875
191.07958984375 -414.07391357421875 -19.638916015625
600.9396362304688 -606.7548828125 -38.8651123046875
-319.56201171875 -251.0748291015625 50.2816162109375
1616.83154296875 982.6348876953125 -276.5333251953125
-22.277587890625 -105.612060546875 168.7330322265625
971.1790771484375 397.1212158203125 -252.2171630859375
-45.390625 1097.8560791015625 291.5146484375
1787.536865234375 912.7513427734375 -253.8258056640625
1550.751220703125 816.0496826171875 -299.4549560546875
233.7086181640625 -431.3118896484375 -14.0982666015625
2279.13623046875 418.2999267578125 -192.2413330078125
2115.75341796875 488.1636962890625 -232.8427734375
45.7581787109375 220.419189453125 196.216552734375
124.9302978515625 -138.1806640625 162.9736328125
46.08349609375 220.496337890625 195.9215087890625
44.81201171875 223.4608154296875 195.8260498046875
190.803955078125 -413.92376708984375 -19.7518310546875
1007.4561767578125 407.9249267578125 -261.7916259765625
93.21240234375 -329.90081787109375 -8.0263671875
288.9122314453125 330.1361083984375 88.5838623046875
-743.520263671875 -819.8265380859375 -577.121826171875
116.8272705078125 -99.2623291015625 186.3013916015625
224.784423828125 -502.3914794921875 -5.74951171875
259.808349609375 -51.4345703125 146.09765625
217.4515380859375 -436.64013671875 -8.8223876953125
487.18450927734375 -629.4437255859375 -18.9906005859375
-322.5596923828125 -103.4698486328125 80.353271484375
15.870361328125 -64.27880859375 213.079345703125
32.242431640625 451.5322265625 162.2852783203125
0.8359375 439.4493408203125 161.0001220703125
19.4083251953125 481.090087890625 161.7156982421875
70.109375 -81.7806396484375 190.5008544921875
6.359375 -96.9024658203125 180.4422607421875
-2.761474609375 376.831298828125 210.6923828125
-212.234130859375 224.590087890625 185.14599609375
1489.020751953125 -382.25689697265625 -311.4345703125
346.56939697265625 -649.0416259765625 -24.7572021484375
425.79559326171875 -228.5634765625 -65.000244140625
444.233642578125 -681.931884765625 -30.120361328125
426.420166015625 -688.1134033203125 -26.5406494140625
452.0118408203125 -696.737548828125 -33.3099365234375
426.8275146484375 -687.96875 -26.601318359375
150.70703125 -19.9150390625 170.4219970703125
139.60546875 -132.0198974609375 166.0020751953125
168.626708984375 -46.4896240234375 177.7843017578125
-251.85205078125 -256.44580078125 72.81689453125
323.56402587890625 301.01904296875 68.2933349609375
126.582763671875 -139.799560546875 160.6815185546875
-322.52392578125 247.431396484375 156.6988525390625
-292.6754150390625 259.5184326171875 161.790771484375
203.29638671875 -802.4219970703125 3.0377197265625
-315.5029296875 217.8890380859375 171.4737548828125
-282.16650390625 229.966796875 168.0423583984375
1669.717529296875 -108.2637939453125 -320.3343505859375
-306.185546875 289.0782470703125 162.8734130859375
-333.6097412109375 276.9847412109375 151.85693359375
1279.4468994140625 -120.088134765625 -264.63427734375
203.2745361328125 -667.1348876953125 -14.370849609375
490.616455078125 -628.1985473632812 -19.3326416015625
122.250732421875 -386.3890380859375 -21.2869873046875
149.456298828125 -426.82379150390625 -2.1553955078125
-31.438720703125 -133.8658447265625 130.5128173828125
320.50732421875 -657.873779296875 -18.161376953125
327.4840087890625 32.2222900390625 75.8511962890625
0.978271484375 -438.55975341796875 61.5799560546875
297.048583984375 23.2640380859375 92.25
135.2784423828125 -467.31817626953125 -7.912841796875
300.5030517578125 -9.705322265625 93.6998291015625
270.12646484375 -17.75537109375 115.7806396484375
285.295654296875 20.1683349609375 100.9141845703125
56.29638671875 819.7049560546875 252.37933349609375
18.0621337890625 821.0938720703125 253.22869873046875
43.4913330078125 427.6824951171875 160.5589599609375
149.7742919921875 -360.76702880859375 -21.8336181640625
35.2147216796875 807.5946044921875 225.864013671875
46.5458984375 830.2083740234375 264.8746337890625
134.7109375 -522.4581298828125 10.357666015625
117.5987548828125 -437.978271484375 3.6087646484375
-156.291259765625 248.7742919921875 204.5040283203125
133.71435546875 -149.6763916015625 153.9158935546875
48.34326171875 606.084228515625 229.3092041015625
-875.923095703125 -1359.66064453125 -398.847900390625
455.9798583984375 -20.19140625 91.741455078125
-899.67724609375 -1368.194580078125 -395.941162109375
1089.5560302734375 1499.5347900390625 -275.11279296875
1041.1748046875 1595.4056396484375 -260.4359130859375
273.1126708984375 32.90380859375 116.947021484375
731.88818359375 644.3294677734375 -298.9154052734375
267.8497314453125 15.7347412109375 114.8121337890625
-606.20068359375 -663.811279296875 -352.29150390625
120.7186279296875 -405.03155517578125 -13.9393310546875
433.15594482421875 -517.0423583984375 -15.2484130859375
303.3551025390625 -38.9271240234375 120.647216796875
52.87353515625 202.153564453125 199.1483154296875
105.45751953125 31.0291748046875 164.3890380859375
256.248046875 -21.4443359375 125.797607421875
165.197265625 -455.46240234375 -2.74267578125
277.182373046875 -448.784912109375 -10.3702392578125
1948.204833984375 558.0386962890625 -263.2640380859375
497.8638916015625 46.7601318359375 53.642333984375
273.3626708984375 -727.770751953125 -20.125732421875
-130.5301513671875 432.8238525390625 215.989013671875
111.977294921875 -90.9285888671875 189.1536865234375
-159.869384765625 420.7354736328125 209.6527099609375
35.148681640625 333.4007568359375 191.7510986328125
258.4176025390625 -389.6875 -28.3792724609375
-788.058349609375 -13.6422119140625 27.7752685546875
