-212 224 185
442 -610 -11
260 -490 -15
-78 628 242
-379 436 181
1334 1008 -312
506 -588 -10
-348 448 184
-331 454 179
-312 461 173
-52 641 255
-279 473 173
-252 485 183
-982 -751 -430
-223 497 192
85 -53 212
-201 506 198
-194 509 199
-164 521 204
-318 6 150
-133 533 205
-128 260 215
-108 542 201
-99 545 200
304 -593 -7
1562 1100 -271
-67 557 200
-36 569 203
-24 574 201
-80 -255 108
120 -405 -13
147 -396 -24
-858 -677 -448
165 -390 -29
183 -384 -33
214 -372 -30
240 -360 -16
268 -348 -7
-53 -243 120
300 -335 -7
305 -334 -7
-815 -727 -500
333 -323 -10
362 -314 -18
-103 616 223
-715 -807 -567
-17 -232 101
-743 -819 -577
669 -1915 250
-4 -423 59
-637 -771 -523
-651 -778 -536
-661 -783 -543
-603 -751 -482
-201 -89 135
-615 -759 -500
370 -311 -22
-1 -422 56
402 -302 -36
319 -620 -18
409 -299 -40
445 -288 -53
-176 -77 151
447 -287 -53
-75 213 227
-232 -172 117
-56 543 188
-33 567 197
-15 552 170
12 561 182
-309 -209 70
-156 -65 179
4 279 234
-49 -17 231
845 951 -374
291 -478 -13
52 -206 95
-158 -62 181
53 167 234
54 321 157
248 -597 -7
264 -591 -6
1087 504 -289
-585 -430 -187
265 -590 -6
-34 -130 133
294 -579 -3
13 -105 172
-318 45 181
327 -567 -4
-224 325 197
392 -542 -6
65 53 238
-230 80 186
301 334 86
133 -57 192
-195 94 193
112 345 170
-164 106 197
-134 118 201
265 -712 -16
215 -33 147
-79 142 221
-52 154 234
270 -17 115
-3 174 245
-6 -494 50
10 178 237
28 183 223
281 -706 -16
39 88 262
33 849 276
64 861 277
94 203 187
70 24 206
102 205 184
133 215 170
318 -264 -36
141 217 166
-388 193 191
193 235 153
210 239 139
217 240 128
235 243 101
57 -444 -5
265 250 78
1507 1219 -265
267 251 77
304 263 65
231 -516 0
209 380 159
336 346 77
338 275 59
-37 228 231
370 287 60
1623 1267 -235
397 299 70
-110 302 216
290 70 124
429 312 77
-54 326 235
-23 338 236
-22 338 236
-663 -779 -541
15 350 217
289 125 158
17 350 215
539 339 -15
53 356 164
165 -734 -21
419 -711 -29
518 -687 -23
1846 1364 -157
-818 -530 -432
-485 -337 -89
-767 -739 -514
-344 -266 36
-737 -732 -502
1237 149 -271
-730 -700 -465
46 830 264
70 850 274
267 394 114
7 795 214
-55 -155 120
-713 -726 -492
220 -63 167
-31 -133 130
-1 -127 142
-52 1485 361
28 -122 154
1395 1740 -189
57 -115 166
139 -303 -3
219 -56 163
-183 342 205
-65 -349 82
281 364 103
-219 66 191
12 161 251
-12 238 228
1151 1074 -330
303 371 94
330 80 106
-100 1642 376
-1494 -1031 -334
-1311 536 -17
183 -732 -22
13 -488 38
245 -711 -14
270 -423 -21
312 -685 -21
382 -670 -28
346 -676 -24
1678 1149 -242
-91 -296 89
109 -408 -9
427 -647 -26
437 -633 -21
-30 -272 96
343 388 108
523 -615 -21
388 -685 -26
533 -600 -17
-3 581 199
551 -590 -27
-416 -299 -23
-375 -132 58
204 -701 -15
1761 343 -304
-295 -96 97
-316 -106 82
22 593 214
461 -711 -40
-320 -108 80
223 -61 165
-202 -51 163
1883 391 -288
-175 -36 195
-148 -23 207
48 606 229
-121 -11 218
-92 0 227
-271 -84 116
-245 -72 131
-219 -60 145
-206 538 196
383 -599 -16
-63 12 232
-34 24 240
-287 -54 124
114 -149 155
-6 36 251
22 48 257
27 50 258
445 -646 -26
59 60 244
-1416 -1001 -331
66 62 239
73 60 209
17 -488 30
73 60 207
73 54 173
90 60 169
117 72 179
2226 536 -192
149 84 181
179 96 186
198 104 189
210 108 188
242 121 187
-1491 -1316 -397
-681 -753 -526
262 127 181
282 133 168
295 136 160
321 145 150
344 152 145
-1232 388 -49
356 157 143
392 169 132
-1605 -1364 -432
394 169 131
428 181 124
-126 604 202
449 188 119
462 193 117
498 205 109
456 107 91
504 207 107
424 -430 -27
481 124 101
156 -719 -15
144 -362 -21
-589 -755 -476
-9 -352 86
245 -668 -14
263 259 78
1223 54 -258
229 209 123
1374 198 -295
-322 4 146
39 252 193
166 -354 -22
445 -733 -35
3 -551 -5
-847 -110 3
-688 -795 -555
1019 614 -302
-92 -154 118
-857 -1094 -516
1689 176 -312
-256 -114 112
997 338 -252
1649 -116 -320
6 -347 77
-293 -238 64
1669 -108 -320
84 -536 9
260 -542 3
-807 -1014 -565
158 122 208
-1216 -1072 -388
-156 248 204
-811 -1015 -564
196 -722 -19
-739 -991 -584
25 -315 50
78 262 163
22 -545 -12
38 -539 -11
1221 1810 -204
52 -533 -7
57 -530 -5
66 -527 -2
80 -521 2
94 -515 7
109 -509 8
138 39 165
-577 -455 -191
45 338 161
180 382 147
-391 324 151
13 -557 -23
39 -542 -12
64 -340 -16
52 -533 -7
-691 -850 -579
82 -527 4
1593 -274 -319
317 -624 -19
-258 70 190
-863 -770 -519
483 -299 -38
462 102 90
256 188 144
510 -264 -61
268 192 137
-423 -174 39
-586 -459 -199
81 549 210
145 -497 0
478 29 55
-932 -772 -479
-1028 -873 -449
177 -485 -1
211 -472 -5
217 -471 -8
246 -460 -13
277 -448 -10
296 -441 -11
872 432 -229
310 -436 -13
-168 314 212
-153 319 211
381 -412 -32
-94 344 224
368 -605 -19
416 -400 -39
-653 -739 -502
-38 366 230
-114 1702 354
-32 368 228
-2 376 210
15 380 188
281 -672 -16
47 388 162
211 -637 -10
59 392 159
1396 -347 -306
-903 -727 -467
93 404 155
-106 -267 93
342 -26 103
474 107 90
-187 408 198
166 428 131
1462 -323 -310
1337 1858 -176
390 228 73
456 -569 0
244 -651 -14
971 397 -252
28 -310 37
408 234 68
428 -773 -27
273 232 82
193 -705 -18
463 -761 -36
-98 444 215
480 -755 -38
234 -689 -11
250 -683 -12
-68 285 223
529 -736 -36
267 -677 -13
-1343 472 -32
285 -671 -17
460 252 58
301 -665 -18
661 372 -103
-318 2133 295
256 -387 -27
334 -653 -20
-2 1080 296
-804 -647 -431
23 -488 15
352 -646 -26
866 430 -227
409 -303 -34
946 456 -256
956 859 -350
-506 -419 -130
1080 907 -341
428 -616 -17
473 -563 -1
1324 1004 -313
1428 79 -298
1096 101 -238
1444 1052 -295
73 864 275
466 -536 -6
489 -592 -9
-18 467 169
1791 1197 -207
1902 1245 -166
-684 -631 -377
-397 -159 49
151 -146 153
-283 -122 96
-39 297 232
-193 -54 167
1330 990 -313
61 -477 -3
-45 1097 291
-17 1109 302
1268 -253 -275
177 -535 8
182 91 183
1373 -216 -294
63 -476 -3
1603 697 -300
1723 746 -282
294 -612 -11
-1108 -749 -344
307 111 130
-658 -1026 -562
7 -404 43
394 166 131
49 493 167
1507 246 -308
1636 294 -310
300 -561 0
1676 310 -309
1741 707 -283
50 -397 -13
74 -40 227
1363 -277 -299
483 -559 -3
70 -390 -22
87 -384 -24
93 -382 -25
-1137 -808 -355
-1370 -1268 -382
165 -142 159
-828 -452 -402
-962 -807 -471
4 -314 76
1136 47 -237
-112 575 199
886 301 -218
925 313 -232
982 333 -248
1048 219 -250
517 -227 -63
50 641 232
1030 1025 -347
68 647 225
550 -215 -65
339 -738 -32
1919 -11 -305
-751 -624 -405
183 -167 142
370 -282 -54
73 -404 -15
1619 1837 -112
-955 -779 -466
-42 1240 312
-877 -755 -501
-831 -738 -506
461 34 59
-45 1367 364
-125 88 209
-642 -644 -360
500 -764 -32
-665 -658 -395
-532 -431 -146
564 -1750 238
1064 24 -214
1119 42 -231
-126 -166 125
-942 -793 -483
554 -1771 240
538 -1777 239
196 -772 -11
-731 -698 -463
-672 -687 -432
126 -139 160
-811 -768 -533
-25 267 228
161 62 174
997 201 -242
15 -311 63
22 -310 53
24 -310 50
-62 -142 123
179 -778 -6
209 -523 7
29 -311 34
204 -769 -13
20 -433 48
-932 -599 -374
527 -737 -35
-57 1419 394
325 -595 -16
152 -124 171
28 34 258
-774 -519 -417
265 -748 -21
269 -746 -21
281 -368 -17
-812 -546 -430
298 -736 -25
-1313 425 -42
73 63 207
315 -730 -27
332 -724 -29
1070 1465 -282
336 -722 -28
157 -719 -15
347 -718 -28
364 -712 -29
82 71 176
1186 268 -275
394 -700 -26
123 -60 194
410 -694 -25
327 -743 -32
426 -688 -26
1 -474 52
426 -687 -26
444 -681 -30
1810 863 -255
1708 461 -302
1830 509 -287
477 -669 -32
355 -615 -21
490 -663 -26
504 -657 -20
-289 58 189
521 -651 -22
537 -645 -24
-613 -569 -275
551 -640 -27
555 -639 -28
23 -469 32
573 -633 -35
1374 200 -295
100 -69 194
-616 -550 -266
27 -432 34
-1050 -715 -358
1096 168 -249
448 59 69
440 56 64
461 65 75
435 53 61
79 -310 3
479 71 72
144 -281 -4
507 83 80
406 -536 -4
303 -734 -25
1063 495 -284
168 -46 177
28 286 223
67 -440 -3
78 -334 -13
278 -585 -3
-61 -355 80
227 -517 2
525 348 -21
346 -649 -24
560 -725 -40
-103 -338 72
314 233 72
459 100 89
-206 -161 131
-106 130 209
319 -553 -1
1220 1525 -258
156 -268 0
-198 -48 172
165 -455 -2
1935 273 -289
-229 -101 123
331 26 71
256 -21 125
1117 243 -262
1390 1170 -290
-25 166 245
490 -699 -32
386 -720 -30
-793 -721 -493
-20 -428 66
92 -328 -7
497 101 87
159 -511 5
-16 825 243
114 447 155
1322 316 -296
301 -9 92
-232 -172 117
1361 330 -300
2053 321 -265
389 -537 -7
1337 1573 -232
6 837 263
1455 364 -307
1222 552 -306
386 -756 -35
171 -45 175
-449 -241 -6
37 285 192
1583 413 -309
351 -579 -12
-45 225 231
105 -322 -1
309 -573 -1
402 -750 -35
201 -498 0
1690 454 -304
369 -640 -28
-1223 -1255 -390
406 -748 -34
229 83 168
508 113 92
-730 -1106 -523
-232 -173 117
451 -679 -33
1487 -244 -310
-207 -273 75
-104 29 224
462 -675 -34
433 -738 -33
-307 87 200
557 -717 -41
1333 594 -312
560 -725 -40
-274 99 198
201 -37 156
163 -612 -10
2168 369 -232
-231 113 186
-293 -43 126
-205 123 187
-173 135 187
389 -568 -11
-1288 422 -39
-143 148 192
223 -588 -1
542 -556 -13
231 -585 -3
-224 -4 189
451 -653 -33
240 -582 -2
255 -576 -1
432 -357 -24
270 -570 0
518 -687 -23
282 -565 0
16 212 218
45 220 196
113 -319 0
179 -609 -7
204 -649 -13
228 -596 -4
274 -577 -2
-829 -955 -574
468 -726 -41
120 244 169
56 -427 -5
150 256 174
164 261 175
520 -651 -22
182 268 173
252 107 177
208 276 159
425 -774 -27
-69 -213 127
226 278 132
242 280 104
243 280 102
268 286 80
286 292 76
82 124 211
320 304 70
2279 418 -192
326 306 69
483 -720 -38
201 -579 -2
382 329 75
171 -337 -14
412 341 81
244 -634 -14
434 349 78
-449 442 164
248 -560 4
1352 601 -312
-315 217 171
466 357 57
278 -549 4
92 303 174
-104 -88 169
511 361 -27
188 -591 -3
307 194 130
236 -576 0
121 -316 -1
-280 -13 153
247 -563 3
-282 229 168
284 -561 1
-833 -956 -572
464 -643 -28
-30 -272 96
264 -626 -13
1736 1315 -199
-61 1382 387
270 93 150
-1793 -1010 -356
279 -620 -12
-253 242 175
-698 -837 -576
1676 1718 -124
204 -3 142
574 -633 -35
287 -635 -17
183 -266 -23
449 57 68
314 266 64
463 63 74
486 60 66
499 69 71
236 -27 136
-117 -380 60
-1462 -1089 -350
440 74 72
425 68 70
454 80 78
-197 266 196
468 86 83
-258 254 175
494 97 86
312 -608 -14
478 -640 -22
-2 -299 73
-175 287 209
-170 278 207
122 315 180
434 55 62
462 -613 -11
1091 370 -272
22 -417 32
1136 386 -280
138 -310 -3
1272 434 -299
1348 462 -306
1403 482 -308
-760 -932 -596
1531 531 -309
1656 579 -301
-726 -849 -587
1713 602 -294
-346 377 166
1777 627 -285
584 537 -187
427 311 77
-195 337 205
601 541 -197
2120 773 -187
-364 -346 -10
-529 -318 -93
1695 492 -302
-238 421 183
-454 -282 -41
-81 314 224
-457 -283 -43
-387 193 190
-479 -294 -59
360 -590 -14
300 -739 -26
333 -727 -29
462 323 69
100 -525 9
56 190 202
134 -522 10
156 327 174
-411 -257 9
149 357 159
-21 -5 240
164 -698 -11
65 -315 -1
-360 -233 40
391 -542 -6
-433 -269 -16
459 -518 -15
-659 -575 -317
1679 1434 -189
-591 -860 -541
189 -707 -18
-282 -197 84
467 68 75
414 -622 -21
-257 -185 101
-164 349 206
268 -80 159
867 1074 -365
1388 1174 -290
216 -134 162
-76 385 227
-54 393 223
-139 -136 125
-24 401 201
327 -638 -20
510 332 6
344 -632 -22
40 419 159
-115 582 199
361 -626 -24
494 77 74
377 -620 -25
1279 -120 -264
306 -68 144
-361 -91 71
-717 -916 -598
406 -608 -17
-1551 -1198 -380
434 -595 -8
-41 428 194
-74 -84 181
-1520 -1185 -374
463 -583 -1
29 -308 34
999 740 -328
273 -727 -20
-1157 -1053 -405
-33 1311 305
58 191 201
528 -740 -36
568 347 -33
158 328 173
560 -671 -23
444 -1542 205
-51 1109 293
179 -313 -9
-54 1453 384
-21 1115 305
-700 -457 -349
5 -447 59
-645 -813 -550
153 -633 -8
330 134 140
-77 700 252
104 374 159
161 -158 141
186 -146 157
120 -353 -14
208 -271 -35
-206 538 196
-83 583 211
-41 -327 91
-54 590 223
-336 210 177
-26 600 235
-2 622 244
-8 585 208
1760 761 -275
-254 0 177
45 611 230
9 1050 298
300 -9 93
282 -706 -16
189 339 170
-540 -472 -172
14 10 252
194 -343 -18
423 -530 -6
-562 -484 -196
-257 -1 174
224 -330 -10
-606 -867 -552
166 -697 -12
283 -309 -16
292 -306 -19
325 -296 -33
1733 1030 -248
-734 -778 -552
-296 70 194
-763 -790 -560
451 218 86
-707 -766 -540
403 410 101
204 -304 -14
-302 -351 26
-78 -110 145
-657 -741 -507
-618 -717 -445
2173 654 -190
-216 569 192
1847 1079 -214
-621 -801 -530
-637 -729 -477
-219 -315 56
331 -294 -37
365 -283 -52
-162 -291 74
214 411 124
407 -270 -65
1841 794 -257
413 -267 -66
3 660 247
471 -246 -67
-17 -66 205
35 669 226
61 677 210
444 -751 -36
-12 816 240
4 -227 76
474 -741 -40
478 -739 -39
182 -692 -16
533 -717 -34
18 821 253
221 351 164
214 -134 162
583 -663 -27
536 -716 -36
553 -710 -39
469 114 93
567 -704 -33
582 -698 -30
214 -301 -17
326 -96 138
-696 -908 -595
456 -604 -7
-598 -788 -508
170 -627 -10
-233 103 185
-39 712 237
-21 653 258
737 614 -280
9 -489 44
-36 -88 183
1957 1127 -173
-145 -201 118
-1281 477 -25
347 -353 -13
341 -667 -22
174 -677 -11
336 0 73
227 352 158
11 -58 217
60 25 237
442 -524 -12
280 -655 -17
21 119 273
-273 200 177
-641 -884 -573
196 -687 -17
470 -599 -8
-334 419 182
-270 -46 136
558 -568 -23
496 -678 -24
52 202 199
232 5 134
163 192 175
249 -289 -30
-107 -124 124
-908 -609 -400
66 137 273
-612 -795 -520
-267 236 171
223 -659 -16
-263 -298 53
2066 891 -184
342 2 71
413 139 114
120 -28 192
346 -424 -24
-235 146 184
-264 514 181
7 795 214
111 143 209
238 353 136
-239 -30 163
1146 118 -250
89 -115 179
240 8 132
126 -166 143
252 -288 -30
430 -360 -25
473 -598 -8
200 -615 -7
92 214 180
-3 721 209
271 -641 -14
268 90 149
-82 -112 140
-65 1389 390
-1199 -980 -381
283 -637 -16
488 -625 -18
-1250 489 -22
-235 526 189
-290 -310 42
8 795 213
-322 -103 80
170 227 159
379 14 59
530 -595 -16
516 -564 -7
264 359 112
58 -12 236
531 -559 -10
81 23 176
-75 41 230
-37 -310 93
-46 53 238
66 291 159
-18 66 247
-1212 421 -42
337 -495 -16
38 90 264
44 92 264
213 -680 -13
70 102 264
81 102 236
-41 -203 126
-216 -18 185
76 96 209
83 104 246
153 252 171
267 15 114
230 315 133
101 102 187
129 114 197
155 126 211
-9 -76 197
172 133 213
188 138 210
216 147 197
246 -561 3
227 150 192
258 160 179
266 162 175
295 171 160
9 78 257
306 174 155
334 183 141
-86 642 245
345 186 136
374 195 123
383 16 58
385 198 118
189 21 151
411 206 104
426 210 95
-875 -919 -551
464 222 81
498 235 76
173 -749 -25
229 -674 -15
318 -569 -1
-190 -6 199
402 -527 -11
543 -660 -22
1374 197 -295
219 -616 -7
-37 1139 317
433 -517 -15
505 -586 -9
224 -605 -5
199 246 155
-93 583 207
221 207 130
-1 -388 56
299 98 127
-180 -261 87
15 -64 213
165 -700 -12
250 -681 -12
280 -659 -17
348 -639 -23
383 -630 -27
394 -618 -22
472 -596 -7
-206 538 196
481 -580 -3
516 -572 -6
413 26 52
397 370 85
539 -573 -14
235 16 135
135 43 168
254 -608 -10
125 -589 9
177 -747 -24
489 -735 -36
169 -679 -10
511 -584 -9
-375 -131 58
-163 5 210
-261 170 182
-352 -109 68
558 -654 -24
303 -47 129
297 23 92
433 382 75
208 310 159
1247 1757 -210
314 103 121
324 -709 -26
41 -52 228
979 1428 -294
285 20 100
-30 -272 96
1100 1477 -278
327 32 75
386 -685 -25
1452 1622 -202
424 -1532 208
347 -525 -9
331 -300 -31
410 62 69
-746 -815 -575
471 389 25
437 -667 -30
430 -496 -25
-785 -718 -492
1014 1361 -305
273 32 116
1566 1670 -166
471 -655 -34
-625 -743 -491
135 -467 -8
371 -289 -49
515 -636 -24
516 -636 -24
-406 353 155
188 -742 -22
-176 551 200
245 -668 -14
548 -624 -27
549 -624 -27
315 376 96
566 -618 -33
-12 -353 86
86 -399 -17
560 -654 -24
-21 -411 66
600 -606 -38
571 -157 -71
264 -591 -6
-759 -748 -525
64 -376 -23
-894 -835 -532
0 -237 74
522 -580 -11
-212 467 195
20 -260 48
-827 -814 -560
-800 -804 -563
323 301 68
249 214 107
84 -553 5
80 -370 -25
345 115 124
-119 -237 94
-228 598 186
-198 610 190
-812 -731 -503
-518 -334 -102
95 -364 -22
-143 634 212
-119 646 232
-141 290 214
-122 645 230
-898 -846 -533
-200 -173 130
-7 540 163
-143 563 198
-56 674 257
68 -491 -1
-32 682 253
223 -552 4
-10 689 241
1948 558 -263
310 49 97
-287 129 199
166 55 171
18 696 218
-12 -409 62
-250 141 186
1337 -229 -289
-20 -369 83
313 -579 -3
-346 -120 67
-1727 -1128 -388
-185 165 183
723 515 -216
397 53 64
-1366 -983 -334
538 -574 -15
-200 472 198
-101 201 213
389 -771 -27
103 -161 150
578 -648 -33
-1076 -886 -419
333 33 72
133 -149 153
148 -143 157
368 123 121
18 248 219
90 -35 214
25 250 214
1666 167 -313
-88 1613 381
128 -592 6
59 255 167
421 73 74
106 274 173
150 -19 170
445 95 83
179 -137 165
572 -712 -35
158 -120 173
166 -116 174
155 -339 -12
-760 -707 -477
2062 606 -231
-999 -1005 -479
349 62 79
-905 -978 -536
-11 -302 81
1387 -72 -289
196 -443 -1
509 -213 -58
1483 -38 -305
1615 9 -315
12 -419 45
102 -161 150
219 -730 -19
-116 573 198
1743 58 -315
278 -656 -16
1867 106 -306
2105 203 -264
-31 1068 289
37 920 280
6 908 277
-3 -406 55
428 -61 111
64 929 272
335 -579 -12
-1640 -1293 -423
-733 -736 -508
-1542 -1214 -383
515 -210 -59
1652 -70 -319
15 384 183
539 -574 -15
-183 479 203
-840 -1024 -546
1372 -114 -288
568 350 -38
104 -580 7
380 127 115
120 -28 192
-321 52 183
10 -529 10
-80 1611 349
15 -529 -5
30 -524 -7
118 -574 11
44 -518 -4
59 -512 -2
10 -487 44
70 -507 0
-447 270 165
90 -500 0
-85 587 212
107 -494 -1
-377 294 148
-347 306 154
-186 -152 136
373 85 88
-319 318 164
222 75 165
274 -691 -13
-291 330 172
15 -536 -4
1405 -204 -299
-236 354 195
392 -543 -6
558 -195 -60
-206 366 196
234 -724 -17
-205 366 196
-175 379 200
-147 391 212
-153 491 208
-119 403 220
-87 415 221
417 -744 -33
394 56 67
17 -508 12
32 -505 1
291 -685 -15
36 -503 0
193 -529 7
52 -497 -1
32 451 162
168 -556 8
-1279 406 -43
84 -485 -1
-833 -888 -576
10 -513 27
428 224 76
-71 702 251
1007 407 -261
16 -512 12
109 -398 -18
24 -516 -1
-18 -399 67
403 -679 -25
119 -538 17
233 -431 -14
110 -359 -18
-768 -1066 -549
370 -517 -15
379 -706 -27
-318 389 175
241 -722 -16
-601 -580 -271
295 -650 -18
-868 -598 -418
423 -759 -33
-32 713 232
15 -402 32
1955 842 -225
383 -513 -19
443 -537 -2
-284 122 199
1279 -109 -264
560 -568 -23
-122 504 209
346 -666 -24
-92 480 208
-885 -124 21
19 665 235
44 223 195
-100 511 204
443 151 117
-35 -201 123
-850 -49 36
171 -362 -27
366 -475 -16
29 730 188
136 -532 13
191 -414 -19
384 -704 -26
-301 431 180
35 807 225
-290 401 183
-60 599 228
209 306 159
423 413 74
500 -73 85
-794 -1075 -541
372 -576 -14
524 -660 -20
459 -521 -13
-16 -373 79
1658 26 -316
249 -718 -16
103 -544 17
1346 -86 -281
391 -649 -27
311 -644 -19
1479 649 -309
232 -603 -6
440 -753 -35
2001 439 -264
243 281 104
-810 -552 -429
-306 -138 79
1184 -71 -234
165 -16 159
8 -366 60
425 -430 -27
-73 486 200
422 -637 -24
-628 -788 -527
-1 -190 108
528 276 48
293 -314 -12
1279 -40 -264
444 152 118
-25 -358 86
143 -530 12
-685 -712 -470
10 -368 44
-723 -1050 -559
706 635 -292
531 -630 -26
-332 348 162
-257 414 182
317 -659 -17
315 -642 -20
-134 17 218
-759 -706 -477
-1449 -1719 -430
2115 488 -232
-134 361 212
-709 -880 -594
-664 -700 -443
150 -495 -1
114 -540 18
-85 516 197
466 -619 -15
-54 492 189
411 -1504 209
479 -528 -11
-1146 -1593 -358
474 163 121
185 -10 150
-23 -422 66
-1315 -1386 -387
482 123 99
153 -526 11
179 -778 -6
15 -457 46
195 -762 -17
572 -617 -35
307 -716 -23
341 -705 -26
-35 611 245
424 -681 -27
549 -627 -27
-44 528 175
-11 1148 309
364 44 62
-308 186 189
-61 523 186
459 -747 -41
608 418 -117
-631 -837 -551
-450 -240 -5
-451 -240 -6
904 574 -281
-428 -228 17
616 421 -122
307 -715 -23
-402 -216 31
-376 -204 46
156 330 172
-349 -191 58
161 -769 -14
-320 -179 67
-294 -167 81
-269 -155 98
30 -177 117
-244 -143 114
688 442 -162
-256 -149 107
-217 -131 126
918 1262 -330
-200 -124 130
-187 -119 131
-154 -107 128
99 -343 -10
-109 -83 176
-116 -87 164
868 692 -320
-127 -95 140
282 -706 -16
-3 623 245
-84 -70 191
-57 -58 205
-32 -46 220
-5 -34 232
114 -337 -6
21 -22 245
56 -10 237
57 -10 235
78 -6 209
102 -1 185
772 467 -207
114 1 173
131 5 162
584 -577 -30
154 13 155
-26 498 166
186 25 153
849 289 -202
194 28 153
219 37 152
250 48 142
840 488 -237
524 182 116
256 49 139
-786 -760 -535
285 58 122
-26 1181 337
298 61 113
312 -537 -1
323 69 103
337 73 98
372 85 89
177 -763 -18
374 86 89
1395 1455 -245
405 98 87
435 110 91
-2 623 245
492 134 108
-1436 -1434 -405
1510 1503 -214
-1549 -1483 -440
199 174 190
-260 -46 140
-227 -48 153
10 -453 53
139 -132 166
79 98 244
-204 365 197
897 372 -227
43 427 160
104 96 186
130 112 196
-518 -424 -137
17 -451 47
206 113 193
385 188 128
424 201 109
316 -536 -2
340 -703 -26
463 216 91
135 -467 -7
-52 1169 322
241 -704 -11
-407 -370 -61
190 -758 -19
-48 -314 94
-400 -366 -54
217 -436 -8
132 -334 -9
-340 -334 9
265 -420 -23
-692 -788 -553
270 -419 -25
305 -407 -32
187 -514 7
323 -400 -34
337 -395 -32
366 -383 -27
397 -370 -25
-168 622 195
-150 -249 90
33 635 234
451 -732 -38
-94 -225 111
474 -724 -41
-277 372 185
9 708 215
526 -702 -28
43 -289 23
511 -708 -30
-452 -286 -41
2 -189 107
545 -695 -29
-281 97 200
53 -165 138
79 -556 -1
574 -683 -26
590 -677 -28
343 -702 -26
597 477 -154
106 -140 164
137 -128 168
146 -618 -8
198 -104 175
232 -92 170
233 -92 169
731 644 -298
78 -153 156
281 -76 155
646 492 -179
960 726 -327
-326 -37 109
-237 111 186
1368 -288 -300
247 -526 3
1253 837 -324
1317 862 -319
-94 658 247
1376 885 -313
1497 934 -298
1127 789 -329
177 -606 -6
1616 982 -276
-203 23 199
614 347 -54
267 -519 0
-174 35 206
-10 1252 311
-65 670 256
-114 59 217
-85 71 224
184 -603 -4
-57 83 232
1 -368 75
1897 970 -220
-3 107 257
-4 -462 55
190 -671 -13
203 -667 -14
193 -600 -5
144 -492 -3
87 140 247
303 -507 -11
408 -386 -34
140 156 216
354 -454 -10
166 165 211
176 168 205
208 -594 -3
-319 -251 50
356 -697 -25
123 -350 -13
-1041 -933 -454
24 -464 32
-118 644 231
210 -751 -21
265 322 96
-117 160 204
288 330 88
1344 -18 -281
-16 -392 68
344 349 76
1217 7 -251
368 358 77
388 -442 -15
6 -387 42
431 382 77
-90 172 217
131 -587 7
144 -583 3
157 -578 1
33 -85 191
161 -577 1
176 -570 4
391 -614 -20
-64 184 230
192 -564 2
200 -562 1
519 -722 -32
208 -558 2
-776 -556 -415
109 -358 -16
239 -546 5
50 705 197
124 -352 -14
139 -345 -12
-35 196 239
150 -592 -1
196 -571 0
371 -691 -25
564 435 -107
-210 639 187
-158 663 216
-21 201 237
-160 662 214
135 -568 9
135 -568 9
152 -562 7
6 -390 42
295 6 91
97 -366 -23
184 -550 6
1 208 227
201 -544 4
211 -540 6
7 724 202
583 -701 -31
173 284 179
0 -367 77
286 -564 0
228 286 133
3 -366 75
278 304 84
340 339 75
520 394 -58
-157 177 192
569 379 -72
-1219 -1622 -368
167 -619 -11
171 -562 6
204 -550 3
347 -683 -24
-354 392 170
47 -365 -26
58 -361 -26
46 220 195
72 -355 -20
87 -349 -17
691 442 -163
761 463 -201
131 -331 -8
394 114 97
135 -329 -8
146 -325 -7
79 229 175
418 -501 -24
692 437 -160
-1185 -920 -375
285 -687 -15
585 382 -78
533 -186 -54
88 232 171
-155 658 216
557 -178 -59
-797 -58 7
-9 -380 70
-570 -526 -222
-933 -696 -429
-1 -387 56
298 -509 -10
7 -368 60
1334 1289 -282
423 51 62
183 -727 -22
103 -378 -25
1383 63 -291
-863 -897 -562
-1299 -1101 -371
161 -137 163
56 819 252
-107 688 249
175 -131 169
216 -538 7
-28 -457 63
119 -609 1
809 347 -181
1174 671 -316
118 -372 -23
136 -603 0
-789 -873 -589
1814 224 -305
420 -601 -13
-264 342 185
18 552 178
147 -600 -2
432 87 78
154 -597 -4
232 -532 7
-190 -303 64
134 286 182
308 -679 -19
169 -591 -1
-303 -25 131
166 298 181
184 -585 0
13 -508 28
173 300 179
190 -583 -2
1273 26 -267
133 -366 -21
206 310 161
353 317 68
420 -673 -26
-814 -547 -430
216 -573 0
-868 -600 -418
-70 421 217
-906 -612 -402
-867 -600 -418
-833 -588 -425
-802 -576 -421
-774 -564 -412
231 -567 1
-570 -470 -193
314 -677 -20
-142 462 212
-412 -360 -59
-321 -34 115
-191 -301 65
-165 -285 75
496 -714 -32
568 -1765 239
-119 -238 94
-82 -251 109
106 -323 -2
-54 -241 121
-15 -227 102
447 353 73
534 -713 -34
544 -697 -30
61 -177 133
448 -589 -4
216 -133 162
325 237 69
233 -95 169
262 -555 4
350 245 61
99 -156 153
482 359 29
124 -138 162
423 -671 -27
146 -126 169
191 -129 166
324 -673 -20
383 257 58
-970 -629 -356
-909 -613 -400
148 -358 -20
383 257 58
141 -610 -5
26 -171 119
523 365 -35
503 -726 -34
570 -1765 239
-1021 -713 -377
149 -360 -21
-981 -648 -361
-944 -684 -414
64 -286 14
-809 -640 -428
-855 -625 -425
-787 -602 -416
164 -113 176
494 22 52
569 377 -69
507 27 50
1489 -382 -311
480 294 55
1504 -418 -310
572 377 -71
-510 -347 -107
-884 -571 -409
-868 -566 -418
290 -721 -21
-845 -559 -427
504 300 38
-690 -973 -586
-231 11 190
-1215 -1348 -387
-1187 -1338 -389
602 356 -59
-1051 -1289 -409
433 -459 -17
-909 -1241 -444
-767 -1193 -479
0 -315 80
155 -277 -4
412 -658 -24
-606 -663 -352
480 -577 -3
214 -257 -18
379 -16 91
1722 -226 -321
-1295 435 -36
-1265 447 -32
566 -130 -76
-816 -514 -431
-335 146 207
-354 -341 -1
-300 158 199
451 -662 -33
-293 160 195
1534 -372 -313
-247 175 179
-228 182 177
216 -644 -13
-198 195 183
270 376 115
-171 207 194
322 -63 137
-142 219 202
-115 231 213
-486 -281 -55
-56 255 225
10 979 282
670 880 -404
203 -736 -19
-116 -110 130
-84 -110 143
43 282 160
-45 -75 193
1271 1122 -311
1386 1169 -291
40 -51 229
627 333 -48
298 -700 -18
311 -696 -21
195 -257 -17
317 -694 -24
545 -731 -40
333 -688 -25
-709 -724 -490
349 -682 -24
366 -676 -27
379 -671 -28
-658 -696 -435
397 -664 -25
306 -517 -6
425 -653 -26
345 -56 128
429 -652 -27
425 -228 -65
-611 -656 -347
461 -640 -25
475 -634 -20
428 92 82
490 -628 -19
-304 360 171
-1244 491 -21
522 -616 -21
523 -616 -21
540 -610 -22
-195 681 198
559 -604 -31
574 -598 -35
576 -598 -35
501 -233 -62
-1239 -1219 -388
243 -545 4
-1378 457 -41
-48 741 227
-46 742 226
-19 749 203
-2 753 194
553 -679 -26
816 348 -185
224 180 168
-363 336 160
320 -623 -19
336 -617 -19
352 -611 -19
360 -608 -19
326 208 104
352 216 90
398 -593 -14
413 -587 -12
427 -581 -7
441 -575 -2
-110 474 211
449 -571 0
366 -49 120
466 254 57
122 -386 -21
37 -485 3
45 -482 0
490 -556 -4
507 -550 -7
77 -470 0
-1224 -1214 -391
93 -464 1
-720 -799 -564
-32 -343 87
17 -489 30
23 -489 15
466 -548 -1
32 -497 1
31 352 190
-391 -323 -16
-11 -479 52
197 -684 -16
17 -469 47
483 -649 -26
406 -607 -17
416 -593 -13
429 -585 -7
443 -580 -2
-27 498 167
56 -462 -4
60 -460 -4
71 -456 0
176 -642 -9
85 -450 2
154 -370 -24
249 -393 -30
377 -655 -29
61 -473 -3
-247 384 189
59 470 166
74 -506 0
-197 25 200
148 -669 -3
258 -389 -28
166 -663 -9
170 -661 -10
183 -656 -10
207 -630 -9
199 -650 -12
-198 10 200
-1099 -1171 -420
63 110 272
360 -554 -8
232 -638 -13
-1044 -1018 -455
266 185 148
248 -632 -14
348 203 113
-402 285 150
389 212 95
288 -617 -14
318 -365 -18
498 239 70
872 487 -247
-377 365 162
-1014 -720 -387
-372 367 162
329 -602 -17
345 -596 -17
-355 226 169
-1249 418 -40
369 -587 -15
498 -642 -23
160 -575 2
376 -584 -15
-227 426 186
-200 438 197
420 -566 -6
226 180 166
483 92 85
416 -32 106
251 -614 -12
379 -341 -12
-1023 -1146 -446
-224 393 189
458 44 60
18 760 184
-205 282 196
444 38 56
8 -297 60
63 -520 -2
-216 153 182
-745 -764 -540
418 -32 105
302 -593 -6
614 -1868 244
-304 -280 45
646 -1856 244
176 -534 9
-215 396 189
512 50 59
1999 1037 -178
-145 47 212
284 -629 -15
320 -587 -10
-948 -1123 -476
487 -629 -18
376 -656 -29
135 183 198
204 -802 2
362 -747 -33
46 155 265
180 183 182
-173 -220 116
307 -715 -23
224 181 166
-156 -213 114
455 -20 91
399 -557 -8
165 -279 -12
-7 866 266
-138 -208 108
-47 427 200
-108 -195 111
-225 -244 87
323 -745 -31
-3 1009 285
-79 -183 120
-22 999 270
23 1021 296
152 -425 -3
36 1025 294
-1327 494 -23
352 223 80
-54 -174 120
498 98 86
460 -18 90
0 439 161
-904 -838 -527
442 -717 -32
19 878 279
437 -631 -21
-788 -13 27
296 -614 -13
-159 420 209
291 198 124
67 -492 -1
667 554 -226
447 -716 -35
1317 -27 -274
571 -1782 240
-1268 452 -31
55 460 165
-1248 485 -23
1175 1649 -240
507 -622 -20
7 986 283
-1217 430 -39
1279 1692 -218
101 -479 -2
-22 -393 70
190 -413 -19
-1424 416 -66
447 -627 -18
402 -714 -29
310 204 113
504 -693 -27
1514 -441 -308
-439 -311 -46
51 890 279
70 -118 172
-120 -374 59
-130 432 215
455 -661 -35
513 -565 -6
422 -707 -28
-1385 -1552 -402
-1497 -1601 -439
429 -528 -8
-18 476 169
-1266 -1504 -381
-1189 -1474 -376
195 -342 -17
497 46 53
-535 -359 -124
-899 -1368 -395
116 -99 186
-875 -1359 -398
191 -413 -19
-171 450 207
-346 -263 37
1645 -393 -318
543 -696 -28
1653 -390 -318
274 221 90
452 -696 -33
149 -426 -2
-783 -534 -423
448 -1557 207
-423 -341 -54
-439 -349 -70
-1272 444 -32
451 -625 -17
227 -401 -31
-520 -389 -129
324 -604 -16
7 510 158
216 235 128
-446 -353 -76
-379 -316 -6
183 -75 180
974 389 -252
135 185 196
-449 -346 -74
-402 -329 -28
-355 -304 14
483 -684 -31
-331 -292 32
252 -291 -29
-772 -778 -551
94 -539 12
-235 -248 81
482 -305 -30
-708 -724 -491
-679 -718 -478
365 -599 -17
239 -653 -15
365 -747 -34
-11 -118 155
379 -741 -35
370 -724 -32
-278 -268 59
394 -735 -32
410 -729 -32
473 78 78
412 -728 -32
524 -667 -20
425 -723 -31
1041 1595 -260
380 -708 -28
-768 -1190 -480
1161 1643 -242
13 -147 127
1670 220 -312
-142 -262 85
476 -705 -37
61 -123 165
1508 1788 -154
482 -224 -63
518 -687 -23
452 -696 -33
534 -681 -23
550 -675 -23
177 -77 181
169 -627 -10
566 -669 -22
13 -347 62
-411 -257 9
1166 1634 -243
259 -51 146
1795 -59 -316
-84 449 211
261 -50 145
93 -329 -8
294 -41 125
303 -38 120
332 -30 106
-671 -825 -564
-387 -245 27
377 -15 90
-272 28 180
-251 -256 72
318 -264 -36
415 -4 71
185 -621 -8
-214 52 194
2012 1009 -179
-211 53 194
-299 16 167
-184 64 199
-155 76 205
446 -555 -1
62 463 166
-95 100 215
-67 113 226
-41 125 239
272 203 116
789 929 -383
-14 137 251
-278 301 172
559 -690 -29
13 149 261
485 90 82
37 158 261
47 161 257
215 -609 -5
61 163 237
76 165 209
-251 313 184
135 -467 -7
133 184 197
482 -613 -14
52 -206 95
333 -389 -30
881 368 -220
357 -369 -20
-60 456 201
363 219 84
404 287 67
-929 -586 -374
67 -347 -18
380 -14 89
79 -335 -13
-412 -307 -25
35 807 225
591 -678 -28
232 79 164
-674 -967 -585
-244 40 189
623 -1892 246
-65 1548 356
551 -606 -27
-849 -113 2
989 267 -245
450 -554 0
1023 278 -252
419 -2 69
-201 -232 104
313 212 98
574 -1849 242
601 -1839 242
-355 107 204
148 -87 186
20 254 220
236 350 136
456 9 57
2009 724 -228
255 333 109
294 345 90
75 -540 2
361 370 83
410 -1502 209
431 384 77
1380 -155 -292
428 309 76
260 -662 -13
51 131 278
478 -76 97
573 -1815 241
-315 -259 48
589 -1809 242
-107 373 223
2039 36 -286
-48 460 191
509 -672 -18
1894 676 -260
1465 1307 -258
71 362 162
98 -565 6
111 -559 13
-18 433 169
127 -553 14
-175 -148 134
140 -548 11
174 -553 8
831 810 -358
144 -547 11
288 -377 -24
160 -541 9
175 -535 8
-417 -186 37
-390 -174 49
-309 188 188
-40 397 217
213 -521 6
-1402 -1837 -416
-240 212 175
-130 -53 195
176 -265 -8
-184 236 194
-131 -133 124
-794 -751 -526
-103 -41 207
-77 -29 220
-99 272 220
-279 -124 98
135 -568 9
475 301 61
215 -536 7
-10 309 237
-61 -100 167
193 -757 -19
24 320 222
-285 -253 61
36 319 192
38 315 158
6 6 250
-718 -753 -529
1875 949 -228
82 333 168
11 409 166
36 19 255
136 353 164
90 -550 10
35 333 191
182 369 156
479 -544 -5
105 31 164
320 -667 -17
214 381 157
150 48 170
350 -630 -23
181 -728 -22
199 67 168
16 -296 51
510 424 -65
46 421 160
857 1095 -364
-396 332 153
514 -601 -16
11 694 224
591 -677 -28
426 240 63
523 322 12
-583 -874 -543
-363 233 166
-254 -250 73
-22 -105 168
111 446 156
-357 235 164
-15 469 167
100 173 205
-322 247 156
357 -488 -20
-334 -79 82
880 1105 -360
-292 259 161
484 -542 -6
-374 358 162
226 -745 -20
677 502 -195
-265 271 173
-262 -42 141
-759 -707 -477
253 53 143
-238 283 184
-224 82 187
391 -578 -13
19 481 161
83 133 211
241 -739 -18
-1664 -1246 -415
-211 295 197
511 -683 -23
-87 243 224
149 -740 -21
191 199 152
1261 -241 -271
-184 307 209
9 -535 9
256 -612 -11
273 -727 -20
-381 92 193
346 -424 -24
483 -576 -3
976 1143 -344
377 -342 -12
347 -424 -24
534 -594 -17
406 -572 -10
-138 -83 155
496 -571 -3
-121 332 212
142 -317 -5
402 -405 -36
-17 -337 88
212 -716 -18
-10 -335 87
-2 -331 90
-66 356 232
-689 -743 -517
-864 -530 -416
12 -327 79
-1 406 176
21 -329 48
5 -551 -9
1096 1192 -325
1539 -156 -314
192 -636 -10
76 508 174
55 -325 -11
55 706 195
82 -313 0
95 -307 6
756 526 -231
112 -301 4
1072 160 -245
118 -299 2
130 -295 0
1175 -6 -238
72 -542 -1
884 230 -225
1360 -291 -300
495 264 52
-14 770 205
24 783 186
35 807 225
145 -290 -3
-659 -740 -505
182 -279 -23
168 -283 -13
18 380 184
261 393 119
245 -625 -14
-862 -529 -418
-411 -257 9
-13 -344 86
198 -686 -16
8 -344 78
-128 -57 194
14 -343 63
18 -337 47
1216 1240 -304
413 -329 -16
1428 767 -311
552 -588 -27
118 -312 2
-613 -723 -452
806 541 -251
73 -405 -15
-710 -682 -442
-605 -622 -307
-700 -695 -453
158 -344 -15
1089 1499 -275
-324 7 148
203 -802 3
-47 -171 120
-646 -720 -465
-375 -268 24
-324 423 182
633 -1826 242
560 -1785 241
441 -319 -20
227 -710 -16
217 -626 -8
272 91 146
250 -700 -12
257 -697 -12
1234 -194 -255
170 -520 10
177 -518 9
-101 -45 205
111 -461 -1
-1336 -1671 -393
203 -508 2
205 -508 2
224 -502 -5
-668 -695 -439
-363 407 175
1273 -180 -267
117 -437 3
360 -661 -29
1434 -264 -306
376 -655 -29
528 276 48
-268 443 177
-239 455 185
474 327 61
1305 -169 -274
406 -643 -25
183 197 159
1245 -51 -255
450 -624 -16
92 -555 9
108 -555 15
141 -541 11
-653 -859 -571
208 -516 4
1375 -145 -290
496 -608 -15
498 -607 -15
-29 532 165
1055 290 -258
254 -647 -13
-37 292 231
42 -93 180
41 564 200
-667 -990 -577
550 -589 -25
-15 -159 118
971 1283 -323
1039 1310 -313
1 -388 51
1159 1358 -293
-72 -37 217
1278 1407 -271
-6 -459 57
1451 1337 -256
-235 -286 64
-2 -458 56
389 380 95
1623 1552 -178
1733 1600 -136
-61 1198 312
-148 -61 185
938 1222 -336
606 431 -126
1553 1413 -223
1649 1497 -183
1754 1557 -140
1289 31 -271
291 -478 -13
-194 -103 132
321 -466 -9
497 -765 -31
23 950 281
374 -446 -13
-901 -575 -397
-17 -13 239
534 -752 -36
-53 1336 326
425 -430 -27
210 49 160
-15 -444 63
0 -438 61
5 -436 59
352 107 114
-127 -165 125
-330 411 180
418 134 107
29 558 189
443 151 117
1506 1360 -242
-594 -538 -243
60 -426 -6
76 -420 -4
1042 622 -305
909 977 -364
-41 1026 268
1302 719 -317
1321 726 -317
-18 1038 288
1550 816 -299
1670 864 -280
1787 912 -253
1901 961 -220
-127 -166 125
-415 313 145
283 224 86
-370 -334 -8
-224 -246 86
-193 -245 99
-167 -228 109
111 -90 189
0 -186 109
414 269 62
445 282 64
-5 937 274
471 291 59
261 -52 146
18 599 219
191 -710 -19
341 -32 110
174 -713 -18
542 311 19
419 -5 73
-232 437 185
456 -17 88
178 -159 147
494 -3 69
37 -135 146
-486 -335 -89
-237 2086 329
-52 -109 156
412 -734 -32
495 -749 -36
446 -724 -35
-168 -87 143
480 -712 -39
495 -710 -32
1566 1385 -225
506 -697 -28
191 -153 152
489 37 50
484 36 51
-35 1210 328
452 -765 -33
503 119 98
704 383 -133
159 -648 -8
171 -643 -10
-975 -1263 -426
-817 -828 -569
-334 -221 55
480 53 63
473 50 62
488 57 64
223 -624 -9
240 -618 -11
196 -788 0
-217 568 191
219 -695 -13
199 -787 0
271 -605 -9
474 49 61
-291 4 161
-863 -671 -444
-258 1 175
481 -755 -38
-488 -337 -90
332 -583 -13
337 -581 -13
429 -358 -24
413 -551 -4
375 131 124
230 199 133
427 -545 0
-384 258 157
444 -539 -1
-204 449 197
-1287 366 -55
445 -538 -1
-58 652 256
461 -533 -4
-187 580 196
355 -732 -31
196 -342 -17
369 -727 -32
371 -726 -32
251 -683 -12
304 -596 -7
418 -708 -28
449 -552 0
434 -702 -28
-585 -497 -217
452 -696 -33
-360 -269 30
-955 -702 -419
469 -690 -37
892 834 -355
-422 -302 -29
444 -1576 206
157 -755 -25
-394 -287 0
256 -318 -8
-371 -275 22
497 209 105
527 -666 -21
302 -11 94
192 -268 -24
-267 -226 79
-242 -214 96
-217 -202 113
371 -483 -21
-191 -190 127
-866 -81 30
-162 -178 135
1645 -255 -321
-365 264 151
-842 -663 -442
87 -111 181
-462 -323 -69
6 -96 180
614 359 -69
-43 -29 229
1790 1482 -147
70 -81 190
1847 -178 -314
435 -560 -2
417 -1517 209
790 407 -189
320 -657 -18
-769 -825 -574
343 -5 76
68 896 273
207 -665 -15
124 -490 -1
1561 128 -311
724 389 -147
-751 -623 -404
303 -342 -8
245 -272 -32
291 -478 -13
8 -507 43
238 -733 -17
-234 276 184
-333 276 151
170 -671 -10
-225 254 185
286 -599 -6
-636 -561 -288
273 -726 -20
461 -92 96
-702 -599 -367
-21 -326 88
-33 -364 81
-310 187 188
224 -502 -5
305 -629 -20
383 -635 -27
-30 95 243
791 407 -189
-155 592 194
-361 -162 56
-1429 -1149 -364
384 -634 -26
-50 257 225
-332 -150 64
497 -605 -14
-22 304 237
405 -608 -17
399 -628 -24
-306 289 162
203 -658 -14
-754 -624 -406
-260 204 174
251 319 107
102 -104 185
-129 189 202
60 -71 202
31 -275 38
-285 129 198
8 3 250
-281 -126 96
1327 661 -314
1202 955 -328
