270.12646484375 -17.75537109375 115.7806396484375
336.3216552734375 -722.5651245117188 -28.8701171875
444.233642578125 -681.931884765625 -30.120361328125
-943.224609375 64.8011474609375 48.985107421875
451.843505859375 -679.563720703125 -33.397705078125
-6.134765625 -526.946044921875 37.7916259765625
473.61956787109375 50.9752197265625 62.8033447265625
427.12872314453125 311.6219482421875 77.021240234375
423.881591796875 -671.9873046875 -27.5972900390625
135.2784423828125 -467.31817626953125 -7.912841796875
455.7718505859375 -661.1175537109375 -35.2662353515625
469.552734375 -690.677978515625 -37.0103759765625
462.06591796875 323.6954345703125 69.677734375
275.60595703125 -777.922119140625 -15.2933349609375
397.961181640625 299.5330810546875 70.2647705078125
12.1141357421875 -387.851318359375 27.8553466796875
390.95037841796875 228.337890625 73.22900390625
476.3416748046875 -705.4578857421875 -37.6343994140625
353.7003173828125 317.008056640625 68.4603271484375
451.2869873046875 -662.5614013671875 -33.64404296875
382.81463623046875 329.0970458984375 75.3463134765625
74.753662109375 -506.4827880859375 0.1422119140625
52.951171875 -497.7462158203125 -1.561767578125
80.291015625 -521.2594604492188 2.576904296875
-190.553955078125 -6.4666748046875 199.6263427734375
341.59893798828125 -705.8438110351562 -26.7288818359375
368.63836669921875 -762.515625 -31.588134765625
369.9501953125 -727.6363525390625 -32.3543701171875
44.7249755859375 -518.5693359375 -4.5096435546875
551.2805786132812 -606.487060546875 -27.2889404296875
84.1650390625 -536.0316162109375 9.0758056640625
59.67431640625 -512.52587890625 -2.0252685546875
63.36083984375 -520.1649780273438 -2.7821044921875
70.756103515625 -507.9813232421875 0.2308349609375
261.46337890625 -52.6376953125 146.7762451171875
356.18212890625 -697.3516845703125 -25.9969482421875
543.6901245117188 -1963.963623046875 246.84814453125
-340.657470703125 -334.39947509765625 9.631591796875
384.3787841796875 -704.0095825195312 -26.47607421875
442.4752197265625 -717.5341796875 -32.907470703125
40.9757080078125 -51.5296630859375 229.0604248046875
-30.0753173828125 -521.835205078125 45.2403564453125
60.5411376953125 -71.310302734375 202.586181640625
210.6275634765625 49.7930908203125 160.3636474609375
343.3900146484375 -702.1919555664062 -26.0
78.047607421875 -6.7821044921875 209.67919921875
-292.6754150390625 259.5184326171875 161.790771484375
215.7982177734375 -609.2990112304688 -5.7515869140625
70.109375 -81.7806396484375 190.5008544921875
19.65478515625 -387.2071533203125 13.6893310546875
61.843994140625 677.2620849609375 210.4853515625
50.0701904296875 641.662841796875 232.02130126953125
-10.801025390625 689.125 241.562255859375
68.895751953125 647.7196044921875 225.185546875
11.2015380859375 694.7542724609375 224.27587890625
309.968505859375 -573.05029296875 -1.7772216796875
320.018310546875 -587.8389892578125 -10.3699951171875
252.72509765625 107.3240966796875 177.5274658203125
318.757568359375 -569.716552734375 -1.7227783203125
332.3741455078125 -583.6345825195312 -13.3868408203125
324.7767333984375 -604.2415771484375 -16.47314453125
313.4593505859375 -579.0017700195312 -3.880859375
-364.2352294921875 -19.9564208984375 91.9898681640625
325.925537109375 -595.9847412109375 -16.01220703125
329.6611328125 -602.6265869140625 -17.9677734375
-334.41796875 419.414794921875 182.1685791015625
-315.5029296875 217.8890380859375 171.4737548828125
-61.3095703125 -100.5731201171875 167.5859375
-363.794921875 233.3631591796875 166.6168212890625
-293.5 160.9493408203125 195.4620361328125
-163.270263671875 5.627197265625 210.9857177734375
319.350830078125 -620.806884765625 -18.67529296875
300.711669921875 -561.0912475585938 -0.3179931640625
46.496826171875 155.1431884765625 265.595458984375
21.656982421875 119.8243408203125 273.37628173828125
437.13232421875 -631.5440673828125 -21.649169921875
37.04833984375 158.3336181640625 261.7254638671875
1708.835693359375 461.3438720703125 -302.5797119140625
-14.52197265625 137.2779541015625 251.821533203125
376.469970703125 -584.50146484375 -15.30517578125
47.187744140625 161.4466552734375 257.087646484375
458.57037353515625 44.93212890625 60.5626220703125
38.5087890625 90.255615234375 264.12762451171875
224.66845703125 -605.932373046875 -5.6832275390625
12.0623779296875 161.7564697265625 251.4970703125
397.69219970703125 -1781.241943359375 224.03228759765625
70.1348876953125 102.3380126953125 264.87603759765625
63.4464111328125 110.3443603515625 272.58062744140625
-3.3065185546875 174.989990234375 245.193359375
0.4046630859375 -554.497802734375 5.995361328125
51.6832275390625 131.9110107421875 278.0343017578125
66.9483642578125 137.0550537109375 273.984375
87.729736328125 140.8631591796875 247.98175048828125
44.111328125 92.4627685546875 264.68804931640625
13.406494140625 149.3699951171875 261.6055908203125
135.812255859375 183.671142578125 198.6058349609375
199.2593994140625 174.031494140625 190.0775146484375
-33.56396484375 567.481201171875 197.87841796875
111.5762939453125 143.9173583984375 209.7059326171875
140.64794921875 156.006591796875 216.6968994140625
166.791015625 165.0567626953125 211.3033447265625
176.9884033203125 168.076171875 205.9241943359375
427.583251953125 -647.97705078125 -26.1087646484375
180.0712890625 183.0225830078125 182.215576171875
444.260498046875 38.886962890625 56.5155029296875
133.3719482421875 215.0731201171875 170.6126708984375
141.267578125 217.3876953125 166.298828125
133.526123046875 184.8477783203125 197.6690673828125
135.8680419921875 185.54296875 196.4449462890625
163.813232421875 192.8582763671875 175.5517578125
-251.85205078125 -256.44580078125 72.81689453125
-450.597900390625 -240.3448486328125 -5.5015869140625
-72.064453125 -37.88623046875 217.2901611328125
305.2353515625 -629.4898681640625 -20.3450927734375
-128.5849609375 -57.2969970703125 194.1824951171875
-84.095947265625 -70.988525390625 191.337158203125
-77.26611328125 -29.3162841796875 220.747314453125
236.642578125 350.562744140625 136.1767578125
-57.8133544921875 -58.891845703125 205.1429443359375
563.4814453125 -1910.9078369140625 244.055419921875
-130.951904296875 -53.5064697265625 195.8734130859375
-101.2884521484375 -45.0443115234375 205.3392333984375
420.2235107421875 -673.189208984375 -26.4293212890625
-63.322265625 12.3370361328125 232.7735595703125
-6.22802734375 -531.2567138671875 37.7581787109375
-5.244384765625 -34.69873046875 232.7454833984375
150.415283203125 -495.39306640625 -1.687744140625
-21.549560546875 -5.1314697265625 240.6580810546875
360.637939453125 -554.935546875 -8.5487060546875
-74.177001953125 -84.76953125 181.974609375
-103.6990966796875 -41.4124755859375 207.308837890625
-45.91845703125 -75.0596923828125 193.52783203125
-121.5382080078125 -11.8411865234375 218.9700927734375
-17.2977294921875 -66.3072509765625 205.2303466796875
-92.9259033203125 0.249267578125 227.0831298828125
-17.38623046875 -13.6065673828125 239.638671875
240.630126953125 -360.1163330078125 -16.8441162109375
-43.2696533203125 -29.59375 229.0643310546875
-32.009033203125 -46.7939453125 220.1177978515625
-49.73046875 -17.2230224609375 231.49127197265625
519.4027709960938 152.93115234375 114.0936279296875
544.220703125 188.0247802734375 106.6102294921875
531.7293701171875 247.105224609375 73.2708740234375
509.887451171875 141.0941162109375 110.2127685546875
532.77685546875 233.91455078125 84.9752197265625
523.54345703125 146.3896484375 111.038330078125
433.15594482421875 -517.0423583984375 -15.2484130859375
18.351318359375 -327.970458984375 64.844482421875
-99.4658203125 545.6451416015625 200.346435546875
82.9534912109375 546.9444580078125 208.5966796875
13.4583740234375 -347.3817138671875 62.863525390625
-104.768798828125 29.804443359375 224.0911865234375
97.301025390625 -366.94097900390625 -23.5638427734375
20.62890625 -260.0875244140625 48.4508056640625
64.77978515625 -286.6834716796875 14.7935791015625
-402.135498046875 285.4068603515625 150.8699951171875
38.832763671875 -272.5501708984375 38.6624755859375
111.7032470703125 446.1297607421875 156.1041259765625
43.860595703125 -289.5582275390625 23.487548828125
-162.795654296875 -178.4927978515625 135.3885498046875
54.525146484375 321.21142578125 157.528564453125
154.0504150390625 424.63916015625 136.800048828125
21.092041015625 -260.57861328125 47.848876953125
232.2706298828125 -603.2596435546875 -6.98876953125
141.5858154296875 387.0025634765625 146.9444580078125
493.6375732421875 -1880.94970703125 236.86773681640625
112.9215087890625 345.3890380859375 170.8909912109375
43.2138671875 -314.082275390625 5.99853515625
35.8388671875 -254.5345458984375 50.828857421875
45.326171875 -267.1981201171875 41.3138427734375
21.8160400390625 -357.891845703125 14.54150390625
158.70654296875 328.586669921875 173.3131103515625
226.361572265625 180.634033203125 166.6585693359375
47.1060791015625 388.1190185546875 162.0816650390625
1561.439453125 128.2144775390625 -311.1925048828125
1615.61962890625 9.9752197265625 -315.864013671875
1676.926513671875 310.1876220703125 -309.46630859375
149.5679931640625 357.457763671875 159.37060546875
1374.0689697265625 200.0791015625 -295.26953125
53.457763671875 356.4305419921875 164.7156982421875
1743.16162109375 58.301513671875 -315.4068603515625
71.3173828125 362.8568115234375 162.59423828125
213.5234375 -521.9285888671875 6.9150390625
23.5247802734375 -336.1741943359375 32.4681396484375
10.684814453125 -368.545654296875 44.5006103515625
87.1859130859375 -349.326416015625 -17.8680419921875
12.0262451171875 -363.9486083984375 45.0445556640625
1666.8756103515625 167.758056640625 -313.4229736328125
-98.53564453125 444.905029296875 215.8365478515625
21.57568359375 -329.234375 48.9141845703125
1689.899169921875 176.538330078125 -312.9781494140625
-15.062744140625 469.015380859375 167.9195556640625
15.0604248046875 -349.3629150390625 46.2701416015625
-109.754638671875 -83.0867919921875 176.0059814453125
-282.74365234375 -197.3160400390625 84.442138671875
1814.630126953125 224.8721923828125 -305.6519775390625
18.861328125 -350.3719482421875 30.5753173828125
676.6109008789062 2020.0904541015625 -192.5972900390625
-783.466552734375 1023.1741943359375 54.5338134765625
1507.901611328125 246.4520263671875 -308.09130859375
24.4422607421875 -310.718994140625 50.06689453125
1636.685546875 294.7750244140625 -310.6689453125
-54.3963623046875 326.692626953125 235.7021484375
18.356689453125 248.1812744140625 219.4754638671875
87.0732421875 -384.93310546875 -24.6763916015625
160.880859375 -541.4266357421875 9.60302734375
20.066162109375 -433.391357421875 48.4107666015625
-1.03125 406.714111328125 176.8651123046875
168.0345458984375 -556.2073974609375 8.087646484375
48.5179443359375 -346.62786865234375 -17.3739013671875
171.3177490234375 -562.5728149414062 6.9395751953125
-281.68701171875 97.1783447265625 200.3660888671875
-34.73046875 24.4273681640625 240.93603515625
4.2606201171875 279.655517578125 234.25994873046875
-1554.885009765625 226.0499267578125 -88.0113525390625
-46.599365234375 53.982666015625 238.00799560546875
255.2978515625 -576.392578125 -1.193603515625
103.953369140625 -615.9769287109375 1.53271484375
-1488.738525390625 250.2066650390625 -93.5882568359375
238.197265625 -733.6416015625 -17.25830078125
-1221.854736328125 287.7806396484375 -57.6453857421875
442.00274658203125 -524.7359619140625 -12.2979736328125
-462.322509765625 -323.69464111328125 -69.0513916015625
-1156.932861328125 311.9407958984375 -60.2291259765625
1271.120361328125 1122.4129638671875 -311.438720703125
-1031.59375 97.6458740234375 31.5020751953125
-56.823974609375 674.1580810546875 257.2476806640625
-76.8826904296875 -468.7686767578125 56.766845703125
199.55712890625 67.2781982421875 168.536865234375
-38.381591796875 -473.6474609375 59.0396728515625
-1643.727294921875 59.5257568359375 -55.3094482421875
-1594.316650390625 -58.7005615234375 -48.325927734375
-1774.911376953125 11.209228515625 -46.866943359375
-320.227783203125 -108.64501953125 80.2454833984375
-1503.939697265625 244.5555419921875 -92.9453125
-1022.1552734375 87.30126953125 35.3758544921875
-794.64453125 1085.7337646484375 40.32275390625
-594.17578125 -538.7716674804688 -243.375
-110.30322265625 302.5084228515625 216.256591796875
304.0511474609375 263.28369140625 65.654541015625
484.566162109375 -542.20654296875 -6.3453369140625
480.33807373046875 -577.80224609375 -3.0972900390625
-145.14208984375 47.2691650390625 212.7867431640625
-153.169677734375 319.979736328125 211.0443115234375
-121.7818603515625 332.062744140625 212.3751220703125
496.14837646484375 -608.232666015625 -15.345703125
1007.4561767578125 407.9249267578125 -261.7916259765625
1091.994873046875 370.6053466796875 -272.8758544921875
-159.869384765625 420.7354736328125 209.6527099609375
1063.07763671875 495.807861328125 -284.8466796875
-141.627197265625 290.42529296875 214.7701416015625
1136.7613525390625 386.2984619140625 -280.8553466796875
175.92236328125 -535.8617553710938 8.7945556640625
248.6309814453125 -597.219970703125 -7.9521484375
174.9791259765625 -553.52685546875 8.4278564453125
149.665771484375 -855.7762451171875 12.26806640625
-323.169921875 117.1722412109375 207.9730224609375
-367.253662109375 134.646728515625 205.7359619140625
34.523681640625 -311.6409912109375 19.69091796875
-394.4549560546875 223.2901611328125 176.4111328125
-449.26513671875 442.2686767578125 164.8580322265625
-413.992431640625 216.5506591796875 180.5960693359375
-347.1826171875 142.59619140625 208.016845703125
-429.408447265625 211.216796875 183.7940673828125
432.25787353515625 87.8643798828125 78.5040283203125
-9.515380859375 -76.3778076171875 197.08203125
-355.775390625 226.1226806640625 169.9063720703125
-381.117919921875 92.9935302734375 193.5150146484375
-388.615966796875 193.2725830078125 191.006103515625
-353.629150390625 105.0867919921875 204.3734130859375
-387.30517578125 193.7474365234375 190.87109375
-409.431396484375 152.1163330078125 198.84033203125
90.095947265625 60.5938720703125 169.9959716796875
-352.25244140625 205.820556640625 183.245361328125
42.2203369140625 -432.5867919921875 -0.1865234375
461.745849609375 34.109619140625 59.224853515625
-47.3519287109375 -489.6875 52.739013671875
478.24346923828125 29.5303955078125 55.3741455078125
467.767333984375 68.0396728515625 75.8055419921875
456.87744140625 9.32958984375 57.615966796875
71.515625 -456.1053466796875 -0.8270263671875
479.084228515625 71.805908203125 72.4993896484375
423.0909423828125 51.2652587890625 62.4862060546875
-475.518798828125 501.3861083984375 165.149658203125
488.8018798828125 57.01806640625 64.7183837890625
484.7733154296875 36.18359375 51.5130615234375
-812.701416015625 -731.0706176757812 -503.8604736328125
440.8604736328125 56.144775390625 64.807861328125
486.7574462890625 60.1490478515625 66.3341064453125
391.433349609375 -649.6721801757812 -27.0238037109375
434.633056640625 55.3533935546875 62.2603759765625
448.29510498046875 59.721435546875 69.7064208984375
55.865478515625 460.984619140625 165.586181640625
435.67169189453125 53.6717529296875 61.5379638671875
270.859375 -570.3507080078125 -0.204833984375
-477.708984375 358.9635009765625 142.1646728515625
295.1927490234375 -650.3082885742188 -18.8546142578125
449.8380126953125 57.364990234375 68.4803466796875
188.3687744140625 -591.6740112304688 -3.3021240234375
352.63726806640625 -646.9734497070312 -26.21630859375
463.4713134765625 63.5306396484375 74.052490234375
461.739013671875 65.7689208984375 75.8699951171875
474.8746337890625 49.3568115234375 61.4832763671875
-47.8486328125 -456.679443359375 63.849609375
72.4866943359375 -355.3704833984375 -20.9637451171875
159.36279296875 -511.5643310546875 5.6549072265625
57.990966796875 -378.3277587890625 -22.3863525390625
443.884765625 -580.430419921875 -2.260986328125
388.126220703125 -685.2703247070312 -26.0262451171875
64.16748046875 -376.193359375 -23.6844482421875
399.0023193359375 -557.633056640625 -8.30126953125
-160.487060546875 -362.61761474609375 55.309326171875
79.49951171875 -335.856689453125 -13.63134765625
203.8681640625 -508.94866943359375 2.9495849609375
80.685302734375 -370.154052734375 -25.0328369140625
445.4935302734375 95.0810546875 83.912353515625
-203.507080078125 23.0914306640625 199.34765625
95.634521484375 -364.11065673828125 -22.5474853515625
105.45751953125 31.0291748046875 164.3890380859375
-187.21240234375 -119.3802490234375 131.191650390625
78.73583984375 -334.5418701171875 -13.1846923828125
93.251953125 -382.677490234375 -25.20361328125
-293.36181640625 -43.7757568359375 126.7384033203125
99.9599609375 -343.27703857421875 -10.067626953125
-411.84765625 -257.8499755859375 9.482177734375
413.26324462890625 -551.5878295898438 -4.13427734375
-772.907958984375 1026.6287841796875 51.0692138671875
389.62225341796875 -537.3756713867188 -7.261962890625
427.67510986328125 -581.14990234375 -7.42041015625
-302.6527099609375 -351.85791015625 26.724365234375
402.34033203125 -527.0318603515625 -11.376220703125
406.5008544921875 -572.4149169921875 -10.6590576171875
389.7225341796875 -568.9512939453125 -11.35205078125
392.039794921875 -542.6989135742188 -6.2667236328125
391.666015625 -542.8516845703125 -6.3394775390625
-122.1461181640625 504.01513671875 209.669189453125
-480.989013671875 -407.02569580078125 -115.63720703125
239.4688720703125 -653.647705078125 -15.697265625
406.9383544921875 -536.80908203125 -4.64404296875
423.483154296875 -530.7699584960938 -6.0584716796875
429.63262939453125 -528.7694091796875 -8.1497802734375
264.029541015625 -591.177734375 -6.5653076171875
392.047119140625 -543.7847290039062 -6.2626953125
11.834228515625 409.8963623046875 166.0560302734375
110.54345703125 -359.74169921875 -18.15283203125
109.222900390625 -358.0634765625 -16.7369384765625
348.522216796875 -639.743408203125 -23.9683837890625
120.1494140625 -353.538330078125 -14.2286376953125
38.7510986328125 -310.9947509765625 13.577880859375
103.2607421875 -378.8929443359375 -25.2177734375
-462.6318359375 471.8280029296875 165.590087890625
-359.499755859375 579.2667236328125 161.8328857421875
-379.18505859375 537.6290283203125 163.8367919921875
118.4896240234375 -312.31103515625 2.2982177734375
-305.65283203125 532.2425537109375 172.144287109375
-270.39306640625 -46.5723876953125 136.1407470703125
384.87188720703125 -634.892822265625 -26.9554443359375
-373.1650390625 539.6898193359375 162.4461669921875
-264.429443359375 514.7755126953125 181.3719482421875
-20.594970703125 -428.73968505859375 66.26904296875
-452.820556640625 544.3511962890625 164.3472900390625
-424.1295166015625 555.10595703125 163.703369140625
-330.98095703125 -28.7447509765625 111.32763671875
-402.152099609375 596.737548828125 156.0972900390625
135.421630859375 -467.5496826171875 -8.0128173828125
411.1273193359375 206.302978515625 104.2294921875
129.552978515625 -831.065673828125 -1.727783203125
214.319091796875 381.6182861328125 157.2041015625
109.9892578125 -787.9447021484375 -9.6214599609375
196.831298828125 -571.84130859375 0.13916015625
192.909423828125 -564.952392578125 2.2835693359375
177.136474609375 -518.0767822265625 9.2718505859375
200.2091064453125 -562.3110961914062 1.5108642578125
-112.186279296875 575.2027587890625 199.4993896484375
-115.0966796875 582.247314453125 199.000244140625
-818.4775390625 943.3697509765625 70.2265625
-745.642822265625 -764.4918823242188 -540.5850830078125
104.86083984375 96.679443359375 186.03564453125
-772.459716796875 -778.0121459960938 -551.544189453125
1462.6279296875 -323.13909912109375 -310.802978515625
1593.7861328125 -274.8223876953125 -319.1827392578125
135.074462890625 -467.6783447265625 -7.995849609375
45.7581787109375 220.419189453125 196.216552734375
62.5028076171875 463.6181640625 166.3704833984375
100.3228759765625 173.47119140625 205.2735595703125
1653.4510498046875 -390.12115478515625 -318.30419921875
-206.392333984375 538.4190673828125 196.1910400390625
46.08349609375 220.496337890625 195.9215087890625
245.6473388671875 -668.340576171875 -14.28125
1487.26953125 -244.69091796875 -310.0313720703125
-217.75439453125 -202.6795654296875 113.62548828125
1645.8477783203125 -255.4962158203125 -321.5634765625
1539.39794921875 -156.5826416015625 -314.003173828125
-228.767578125 598.0611572265625 186.4261474609375
1360.7412109375 -291.027099609375 -300.1845703125
102.47705078125 205.6180419921875 184.9405517578125
76.861328125 165.1763916015625 209.0050048828125
16.608154296875 212.911376953125 218.79864501953125
153.7530517578125 -526.645751953125 11.0550537109375
53.79052734375 167.7977294921875 234.063720703125
-235.434326171875 -286.0133056640625 64.6290283203125
92.35498046875 214.1326904296875 180.7890625
-183.195068359375 342.320068359375 205.89892578125
44.81201171875 223.4608154296875 195.8260498046875
10.19970703125 178.9019775390625 237.51007080078125
-718.044921875 -753.036376953125 -529.30419921875
28.93115234375 183.8626708984375 223.873291015625
109.9322509765625 -509.171875 8.17529296875
65.9259033203125 -315.9462890625 -1.95654296875
83.230712890625 133.4954833984375 211.6463623046875
-667.971435546875 -990.31884765625 -577.5579833984375
-352.028076171875 -109.9818115234375 68.3013916015625
-391.8203125 395.2344970703125 166.377685546875
-348.240234375 448.9755859375 184.013671875
-434.80810546875 483.9205322265625 175.6302490234375
-377.1624755859375 365.6719970703125 162.4903564453125
-577.826171875 -455.434326171875 -191.127197265625
-372.359130859375 367.5633544921875 162.9649658203125
-276.5401611328125 544.33154296875 179.0345458984375
-739.042724609375 -991.7902221679688 -584.4683837890625
90.841796875 -500.4423828125 -0.1558837890625
-392.5631103515625 466.4508056640625 182.3609619140625
482.185546875 -613.4141845703125 -14.6961669921875
-363.460693359375 407.3255615234375 175.10791015625
-354.864501953125 392.5140380859375 170.0965576171875
-60.60302734375 456.970458984375 201.173583984375
-211.4615478515625 53.851806640625 194.6484375
-658.0032958984375 -1026.720458984375 -562.5745849609375
-674.8028564453125 -967.6282348632812 -585.3857421875
134.2950439453125 286.2847900390625 182.5250244140625
203.852294921875 -658.8314208984375 -14.1436767578125
166.78662109375 298.3646240234375 181.1575927734375
254.754638671875 -608.6053466796875 -10.6199951171875
173.9644775390625 300.83544921875 179.5872802734375
61.5096435546875 -477.5726318359375 -3.58642578125
206.8232421875 310.4244384765625 161.3536376953125
209.336181640625 306.404296875 159.5535888671875
145.4349365234375 -497.0999755859375 -0.550048828125
96.959716796875 -272.0548095703125 11.4327392578125
44.8953857421875 -309.745361328125 6.681884765625
93.32763671875 -251.199951171875 43.3587646484375
97.6796875 -273.274658203125 10.99072265625
-231.744140625 11.0001220703125 190.3177490234375
76.513916015625 -275.4981689453125 19.5831298828125
88.2431640625 -292.8768310546875 9.6832275390625
-520.49658203125 -389.5633544921875 -129.057373046875
193.4908447265625 -529.3469848632812 7.947021484375
498.60009765625 -607.3746948242188 -15.7921142578125
483.9542236328125 -649.0260620117188 -26.1029052734375
-239.7828369140625 -30.6688232421875 163.8612060546875
260.931396484375 -662.3834838867188 -13.162841796875
205.234130859375 -508.533203125 2.2999267578125
-156.0882568359375 -65.6060791015625 179.2667236328125
523.5963134765625 -616.1199340820312 -21.8929443359375
497.20037841796875 -605.0159301757812 -14.918701171875
-257.383056640625 -1.0982666015625 174.9385986328125
177.798095703125 -485.0196533203125 -1.603271484375
-258.64990234375 1.3447265625 175.3958740234375
506.94671630859375 -588.5767822265625 -10.9483642578125
514.8102416992188 -601.3346557617188 -16.388671875
-833.04541015625 -888.0592651367188 -576.2159423828125
5.130859375 -551.0233154296875 -9.3255615234375
-898.309326171875 -846.8434448242188 -533.9635009765625
94.884765625 -539.8681640625 12.1116943359375
-863.9716796875 -897.6953735351562 -562.9735107421875
67.1959228515625 -492.30712890625 -1.2432861328125
-894.756591796875 -835.5899047851562 -532.5218505859375
466.609619140625 -619.4560546875 -15.650146484375
256.491455078125 188.5748291015625 144.4769287109375
487.18450927734375 -629.4437255859375 -18.9906005859375
512.5123901367188 76.4765625 76.85546875
542.9735107421875 122.564208984375 89.27001953125
76.46923828125 -628.0702514648438 -9.3367919921875
-127.025390625 -95.20751953125 140.17822265625
-250.355712890625 141.3111572265625 186.1029052734375
-118.778076171875 644.4447021484375 231.927734375
27.30517578125 -356.433837890625 -0.465087890625
-107.83349609375 688.095703125 249.1317138671875
-168.6173095703125 622.23388671875 195.501953125
-509.2994384765625 346.8812255859375 141.3297119140625
-197.2664794921875 25.6304931640625 200.48828125
-93.9029541015625 583.39453125 207.6717529296875
18.3138427734375 380.76953125 184.8099365234375
-143.56396484375 634.3338623046875 212.312255859375
539.6436157226562 339.7127685546875 -15.8382568359375
-119.81982421875 646.437255859375 232.321533203125
236.72412109375 -576.9156494140625 -0.78173828125
-122.763916015625 645.007568359375 230.296142578125
-94.1339111328125 658.5355224609375 247.5859375
-65.93798828125 670.626953125 256.7159423828125
-158.3946533203125 663.8970947265625 216.6220703125
446.71337890625 -555.7149658203125 -1.1304931640625
-155.980224609375 658.373779296875 216.6888427734375
-91.652099609375 -439.2056884765625 60.9267578125
-160.91748046875 662.6373291015625 214.6636962890625
1317.822998046875 862.8822021484375 -319.0135498046875
-126.515380859375 604.7646484375 202.5830078125
81.140625 549.438232421875 210.3345947265625
-146.486572265625 705.5556640625 233.622314453125
-86.1885986328125 642.707763671875 245.26580810546875
227.403076171875 150.5845947265625 192.6905517578125
-85.758544921875 587.2989501953125 212.9503173828125
15.6646728515625 384.8985595703125 183.7213134765625
-103.2122802734375 616.8692626953125 223.669677734375
-134.1591796875 675.9991455078125 235.43060302734375
-58.140380859375 652.9735107421875 256.7322998046875
68.9825439453125 -491.7056884765625 -1.720947265625
-41.3050537109375 125.1827392578125 239.239013671875
-78.8544921875 628.9710693359375 242.1796875
-411.71923828125 -257.8785400390625 9.5347900390625
-35.2353515625 611.4976806640625 245.5523681640625
-67.45703125 557.7264404296875 200.15869140625
-83.686279296875 583.626220703125 211.8524169921875
35.148681640625 333.4007568359375 191.7510986328125
517.6624755859375 -497.921630859375 -23.9139404296875
-54.478759765625 590.82861328125 223.7965087890625
424.99578857421875 201.72509765625 109.90966796875
-26.03466796875 600.047607421875 235.4261474609375
278.1900634765625 304.6138916015625 84.22412109375
286.663330078125 292.8536376953125 76.2130126953125
15.5382080078125 380.36279296875 188.9366455078125
251.066650390625 -683.2022705078125 -12.1068115234375
323.56402587890625 301.01904296875 68.2933349609375
352.96832275390625 223.3011474609375 80.4112548828125
350.650390625 245.802490234375 61.7452392578125
216.181884765625 -573.6930541992188 0.394775390625
326.35015869140625 306.8109130859375 69.4271240234375
120.7186279296875 -405.03155517578125 -13.9393310546875
133.803955078125 -366.8077392578125 -21.8233642578125
-231.725830078125 113.88623046875 186.2901611328125
-258.0123291015625 70.1175537109375 190.64501953125
31.111083984375 -330.3978271484375 18.3150634765625
86.6348876953125 -399.5701904296875 -17.0433349609375
-346.1629638671875 -263.170654296875 37.253662109375
122.250732421875 -386.3890380859375 -21.2869873046875
109.197265625 -398.38348388671875 -18.6612548828125
147.8779296875 -396.368896484375 -24.283935546875
249.086669921875 -393.537109375 -30.4266357421875
208.764892578125 -558.911376953125 2.5537109375
149.456298828125 -426.82379150390625 -2.1553955078125
152.33349609375 -425.904296875 -3.2396240234375
-863.284912109375 -770.6179809570312 -519.7144775390625
456.84814453125 -604.6680908203125 -7.7620849609375
-118.7911376953125 -308.871826171875 77.5506591796875
165.962158203125 -390.4091796875 -29.943359375
144.4610595703125 -362.72857666015625 -21.5211181640625
427.88055419921875 -545.54345703125 -0.83837890625
149.7742919921875 -360.76702880859375 -21.8336181640625
171.61865234375 -362.63739013671875 -27.6590576171875
24.753173828125 320.0020751953125 222.01416015625
166.041015625 -354.7271728515625 -22.5682373046875
154.2200927734375 -370.63507080078125 -24.2333984375
527.2274780273438 -494.546875 -25.4796142578125
191.07958984375 -414.07391357421875 -19.638916015625
183.5936279296875 -384.29754638671875 -33.529541015625
190.803955078125 -413.92376708984375 -19.7518310546875
23.7149658203125 -370.853515625 -1.9183349609375
214.2005615234375 -372.2125244140625 -30.290771484375
90.003173828125 -550.8089599609375 10.7757568359375
191.0865478515625 -413.84112548828125 -19.9075927734375
192.2996826171875 -636.1648559570312 -10.3948974609375
565.5341796875 -548.4410400390625 -21.5198974609375
558.937255859375 -568.4405517578125 -23.138427734375
179.1207275390625 -609.43017578125 -7.067138671875
368.6334228515625 123.9031982421875 121.4332275390625
568.124267578125 -547.619873046875 -22.5384521484375
36.25244140625 319.706787109375 192.2176513671875
553.630859375 -518.0575561523438 -19.05322265625
560.13427734375 -568.0765380859375 -23.7080078125
185.1329345703125 -621.3839111328125 -8.8475341796875
566.728759765625 -545.854248046875 -21.033935546875
542.5938720703125 -538.644775390625 -13.6669921875
250.5843505859375 -681.982421875 -12.2459716796875
-425.0675048828125 461.7344970703125 175.7950439453125
542.495361328125 -539.9691772460938 -13.705810546875
-282.16650390625 229.966796875 168.0423583984375
593.5421142578125 -556.3663330078125 -29.669677734375
542.315673828125 -556.0160522460938 -13.7618408203125
247.458740234375 -563.0884399414062 3.5958251953125
549.4368896484375 -553.6533203125 -15.888427734375
194.541748046875 -343.2784423828125 -18.2999267578125
227.7435302734375 -401.7723388671875 -31.4537353515625
196.04931640625 -342.6405029296875 -17.866455078125
522.189208984375 -616.6583251953125 -21.9312744140625
195.9093017578125 -342.43975830078125 -17.7410888671875
418.144287109375 -501.232177734375 -24.9442138671875
171.022705078125 -337.64471435546875 -14.8370361328125
-254.0245361328125 0.5390625 177.28955078125
58.6539306640625 191.6236572265625 201.5252685546875
-831.7919921875 -738.761474609375 -506.862060546875
51.98486328125 -295.0653076171875 9.56689453125
-115.08447265625 231.3072509765625 213.77197265625
-170.750732421875 278.33642578125 207.906494140625
28.9326171875 -218.9090576171875 74.789794921875
-87.35791015625 243.4000244140625 224.0498046875
233.7584228515625 -92.068359375 169.9847412109375
-730.24072265625 -700.2673950195312 -465.3480224609375
1645.721435546875 -393.05560302734375 -318.3682861328125
-184.146484375 236.6817626953125 194.541015625
273.1126708984375 32.90380859375 116.947021484375
23.7474365234375 1021.2677001953125 296.3916015625
46.5458984375 830.2083740234375 264.8746337890625
13.989013671875 -488.9635009765625 38.6678466796875
-447.988525390625 270.3135986328125 165.333740234375
36.352783203125 1025.8184814453125 294.9910888671875
904.6901245117188 574.4404296875 -281.331298828125
1489.020751953125 -382.25689697265625 -311.4345703125
19.108642578125 878.8516845703125 279.3907470703125
32.114501953125 1005.2183837890625 293.2794189453125
-2.506103515625 1080.3848876953125 296.68310546875
-411.154541015625 282.3819580078125 153.3555908203125
229.9144287109375 -674.4674072265625 -15.399658203125
1042.476318359375 622.7392578125 -305.9085693359375
960.2322387695312 726.3145751953125 -327.1854248046875
88.128662109375 232.5506591796875 171.20849609375
723.0997314453125 515.7703857421875 -216.9779052734375
806.6909790039062 541.9666748046875 -251.8048095703125
840.840087890625 488.0701904296875 -237.7713623046875
-402.0185546875 -441.95025634765625 -88.687255859375
-3.69970703125 1009.1741943359375 285.43115234375
428.94195556640625 -616.7603759765625 -17.60009765625
-247.467529296875 175.9202880859375 179.7801513671875
6.669189453125 908.4085693359375 277.856689453125
45.67724609375 -554.178955078125 -13.9208984375
-416.999755859375 -299.4820556640625 -23.7410888671875
451.568603515625 -653.2064208984375 -33.5389404296875
221.9189453125 351.1527099609375 164.6534423828125
28.2056884765625 34.6893310546875 258.2425537109375
9.648193359375 1050.8287353515625 298.9136962890625
-932.631591796875 -772.582763671875 -479.0850830078125
198.453857421875 104.6822509765625 189.823974609375
229.690185546875 83.8079833984375 168.126953125
258.4176025390625 -389.6875 -28.3792724609375
215.571044921875 -536.9724731445312 7.7694091796875
182.619140625 91.889404296875 183.3582763671875
-451.301025390625 -240.7947998046875 -6.681396484375
155.99755859375 126.44189453125 211.1192626953125
52.87353515625 202.153564453125 199.1483154296875
166.6015625 55.1993408203125 171.0374755859375
172.951171875 133.2835693359375 213.8590087890625
441.46624755859375 -575.1033935546875 -2.1055908203125
188.10107421875 138.52294921875 210.7003173828125
428.20867919921875 92.8780517578125 82.9881591796875
222.8115234375 75.5750732421875 165.3211669921875
-455.83740234375 299.8582763671875 152.581298828125
16.92431640625 -371.16607666015625 12.5543212890625
-48.411865234375 460.14013671875 191.920166015625
232.9830322265625 79.3555908203125 164.8865966796875
549.9127197265625 -509.8057861328125 -21.26513671875
-76.974365234375 385.80029296875 227.01190185546875
-119.168212890625 403.2698974609375 220.15631103515625
-25.986572265625 783.4244384765625 219.355712890625
470.4989013671875 -599.634033203125 -8.5999755859375
-100.6656494140625 511.4114990234375 204.9833984375
201.4268798828125 -544.1298828125 4.5194091796875
-116.074951171875 -87.2203369140625 164.83203125
-87.763671875 415.3526611328125 221.4454345703125
100.1102294921875 -525.3506469726562 9.8367919921875
-110.0040283203125 474.4593505859375 211.9298095703125
46.5499267578125 -269.3250732421875 40.6202392578125
94.3912353515625 203.0103759765625 187.8365478515625
-70.9462890625 421.0604248046875 217.24407958984375
-22.710205078125 -393.95196533203125 70.4952392578125
158.794189453125 122.928466796875 208.0770263671875
149.09326171875 84.769775390625 181.889892578125
210.190185546875 108.940185546875 188.6533203125
163.1866455078125 -612.6468505859375 -10.1998291015625
-47.1181640625 427.410888671875 200.1531982421875
466.4769287109375 254.5107421875 57.8216552734375
389.27593994140625 -771.2491455078125 -27.037841796875
-84.5751953125 449.531982421875 211.6357421875
495.22686767578125 264.5594482421875 52.5067138671875
-316.39892578125 -322.2974853515625 28.3839111328125
408.09271240234375 234.0792236328125 68.4549560546875
85.9775390625 -450.060546875 2.8489990234375
28.8648681640625 -469.376953125 17.54833984375
475.12432861328125 301.8948974609375 61.308349609375
1321.826416015625 726.6658935546875 -317.225830078125
130.7451171875 112.664306640625 196.6102294921875
81.7822265625 102.3067626953125 236.4134521484375
-407.15283203125 -370.722412109375 -61.9722900390625
1722.4498291015625 -226.4991455078125 -321.4674072265625
82.2696533203125 124.4573974609375 211.262939453125
445.14166259765625 282.05029296875 64.93505859375
101.70068359375 102.2532958984375 187.7388916015625
292.5731201171875 -306.3980712890625 -19.6436767578125
460.81085205078125 252.4847412109375 58.5765380859375
449.4139404296875 -552.8444213867188 -0.028564453125
528.4814453125 276.542724609375 48.668212890625
-142.570556640625 219.2138671875 202.9071044921875
463.4647216796875 216.380615234375 91.1334228515625
391.784423828125 -614.0660400390625 -20.797119140625
-293.6065673828125 -238.9774169921875 64.8870849609375
429.90869140625 -585.690185546875 -7.974365234375
-1.1964111328125 -387.1656494140625 56.91015625
498.64154052734375 235.02685546875 76.094482421875
405.8199462890625 -608.28955078125 -17.8070068359375
-157.1375732421875 177.5623779296875 192.4036865234375
413.8304443359375 -587.1963500976562 -12.6046142578125
451.02490234375 218.56201171875 86.0404052734375
207.252197265625 -665.7284545898438 -15.001953125
-14.52392578125 770.3548583984375 205.4471435546875
-19.2501220703125 749.0040283203125 203.53662109375
-433.0810546875 -269.9154052734375 -16.3751220703125
448.8807373046875 -589.885009765625 -4.2581787109375
217.202392578125 240.19921875 128.3426513671875
199.688232421875 -650.9464111328125 -12.48388671875
226.7919921875 278.9349365234375 132.224365234375
-247.484375 556.420654296875 186.0633544921875
7.442138671875 795.3006591796875 214.40869140625
35.2611083984375 807.5679931640625 225.77911376953125
63.30712890625 -393.22607421875 -20.194580078125
-479.200927734375 -294.1258544921875 -59.738037109375
-236.733154296875 354.916748046875 195.3184814453125
223.8883056640625 -624.0824584960938 -9.555419921875
-400.054443359375 -366.88372802734375 -54.5771484375
107.3094482421875 -632.4976806640625 -1.9256591796875
-324.43212890625 423.2470703125 182.5162353515625
31.9293212890625 -560.2257080078125 -19.34130859375
-214.5706787109375 52.644775390625 194.4512939453125
101.8985595703125 -669.38623046875 -4.099365234375
-173.929931640625 135.9166259765625 187.3389892578125
-165.6744384765625 -285.4664306640625 75.747802734375
-326.4912109375 -37.4141845703125 109.7198486328125
147.31103515625 -667.91943359375 -2.768798828125
-312.001708984375 461.0455322265625 173.4906005859375
32.242431640625 451.5322265625 162.2852783203125
68.915771484375 -319.7537841796875 -5.1533203125
102.7904052734375 -651.580810546875 -2.7091064453125
-85.873779296875 71.4444580078125 224.018310546875
-167.457275390625 -228.2872314453125 109.4580078125
-30.982421875 -415.0341796875 68.7340087890625
104.723388671875 -655.72265625 -2.9583740234375
200.623291015625 -615.3419189453125 -7.6851806640625
-982.043701171875 -18.4759521484375 51.6458740234375
-84.442626953125 -110.1043701171875 143.2991943359375
-142.28076171875 -262.8984375 85.2960205078125
39.8040771484375 -542.3016357421875 -12.397705078125
132.832275390625 -334.25372314453125 -9.059814453125
180.6923828125 382.11181640625 147.7490234375
9.1063232421875 78.16748046875 257.94586181640625
104.465087890625 -651.0032958984375 -3.0692138671875
-47.819580078125 -171.8233642578125 120.4521484375
481.8533935546875 -580.4187622070312 -3.9747314453125
-3.94482421875 721.2738037109375 209.8302001953125
209.1522216796875 380.0054931640625 159.3974609375
-119.4320068359375 -238.89013671875 94.619873046875
152.604736328125 -124.1783447265625 171.31298828125
139.77490234375 -654.274658203125 0.9110107421875
-67.8560791015625 113.0867919921875 226.0885009765625
-150.044677734375 -249.7410888671875 90.0606689453125
-232.329345703125 -173.1170654296875 117.309814453125
-295.486328125 -96.5443115234375 97.8173828125
134.5391845703125 -639.4989013671875 -2.2606201171875
90.2347412109375 -35.890869140625 214.6983642578125
-78.341796875 -110.4146728515625 145.7960205078125
-760.349365234375 -932.6862182617188 -596.2662353515625
473.21234130859375 -598.62841796875 -8.734375
-26.433349609375 820.2005615234375 235.021484375
-114.9971923828125 59.3553466796875 217.15423583984375
-2.6380615234375 622.6075439453125 244.9757080078125
-811.274658203125 -1015.9306030273438 -564.0205078125
7.843994140625 795.6339111328125 214.57275390625
118.603271484375 517.3253173828125 153.4112548828125
-35.8779296875 -201.3787841796875 123.202392578125
-794.509521484375 -751.6656494140625 -526.0938720703125
286.335693359375 -564.3087158203125 0.991943359375
-698.646484375 -837.3032836914062 -576.8148193359375
142.3609619140625 -636.9398193359375 -4.828369140625
172.5867919921875 -814.1470947265625 2.3564453125
-1605.290283203125 -1364.8585205078125 -432.6072998046875
242.571533203125 121.0203857421875 187.5555419921875
152.690673828125 -808.7371826171875 -0.412841796875
135.49169921875 -811.4530029296875 -0.9930419921875
-768.249267578125 -1066.393798828125 -549.5047607421875
187.754638671875 -808.104248046875 4.306884765625
150.339599609375 -788.6471557617188 -1.39697265625
-46.9871826171875 742.1209716796875 226.6961669921875
163.128662109375 -834.9671020507812 2.41943359375
159.6025390625 -769.8270874023438 -13.8121337890625
238.3587646484375 353.04150390625 136.8763427734375
196.534423828125 -788.1630859375 0.2550048828125
204.3863525390625 -802.0653076171875 2.680908203125
-193.0477294921875 -245.049072265625 99.00439453125
196.9932861328125 -772.5220947265625 -11.184814453125
193.32568359375 -824.0782470703125 -1.0186767578125
93.8929443359375 -672.4022216796875 -4.0164794921875
199.302490234375 -787.2899169921875 -0.8616943359375
-52.759521484375 -109.4454345703125 156.2635498046875
203.29638671875 -802.4219970703125 3.0377197265625
-232.433349609375 -172.882080078125 117.3104248046875
-130.5301513671875 432.8238525390625 215.989013671875
-61.1329345703125 -497.9134521484375 49.756103515625
-723.149658203125 -1050.8798828125 -559.4422607421875
-37.3282470703125 -507.0765380859375 47.022705078125
-52.66259765625 -513.1189575195312 45.478759765625
-16.9443359375 825.0906982421875 243.3594970703125
-22.1361083984375 -501.03375244140625 48.9141845703125
-21.3626708984375 -502.6636962890625 48.7845458984375
115.9013671875 521.4278564453125 155.5848388671875
-786.710205078125 -760.6638793945312 -535.4434814453125
-12.08251953125 816.3690185546875 240.89825439453125
-60.8914794921875 -498.3350830078125 49.6214599609375
49.0335693359375 493.177734375 167.35302734375
-17.3023681640625 -498.9666748046875 50.4420166015625
-48.8131103515625 -314.248779296875 94.5433349609375
284.8856201171875 -561.644775390625 1.6585693359375
204.6995849609375 -769.99462890625 -13.6748046875
224.213623046875 -796.0349731445312 -6.7548828125
-469.225341796875 295.623291015625 157.9072265625
111.7713623046875 -630.7596435546875 -1.6058349609375
215.3092041015625 -766.4876708984375 -16.9271240234375
182.79052734375 369.535888671875 156.2178955078125
217.513427734375 -781.578125 -8.41845703125
218.556640625 -781.258056640625 -8.896728515625
-690.639892578125 -973.8487548828125 -586.852294921875
164.4139404296875 -698.6259765625 -11.401123046875
165.6611328125 -700.4542236328125 -12.4752197265625
18.0621337890625 821.0938720703125 253.22869873046875
182.4473876953125 -692.5908203125 -16.4534912109375
196.520263671875 -687.369140625 -17.1126708984375
-1462.26806640625 -1089.83349609375 -350.4478759765625
110.19970703125 -627.997802734375 -0.747802734375
204.75732421875 -701.3287353515625 -15.9896240234375
-875.315185546875 -919.8912963867188 -551.6314697265625
216.213623046875 -818.1024169921875 -8.9102783203125
-321.98974609375 52.42529296875 183.9227294921875
14.202880859375 -343.4678955078125 63.1639404296875
236.616943359375 -775.222900390625 -14.014404296875
243.2537841796875 -772.8883056640625 -15.14599609375
345.13067626953125 -56.3955078125 128.5247802734375
232.66064453125 -761.2077026367188 -19.49365234375
-1239.981689453125 -1219.8330078125 -388.91796875
210.617431640625 -751.7132568359375 -21.42822265625
231.7347412109375 -760.732421875 -19.8731689453125
208.737548828125 310.8291015625 159.3037109375
232.4783935546875 -760.4501342773438 -19.8671875
228.01025390625 -748.9160766601562 -21.41015625
281.49755859375 -76.3427734375 155.0006103515625
248.5284423828125 -754.40966796875 -20.072021484375
271.509521484375 -763.1494140625 -21.2489013671875
6.359375 -96.9024658203125 180.4422607421875
203.2745361328125 -667.1348876953125 -14.370849609375
271.9049072265625 -764.5681762695312 -20.6817626953125
270.8336181640625 -763.38525390625 -21.1214599609375
-726.12060546875 -849.396728515625 -587.7091064453125
226.240478515625 -745.671630859375 -20.5897216796875
241.2183837890625 -739.6282348632812 -18.1749267578125
497.81512451171875 209.989013671875 105.197021484375
234.76708984375 -742.1435546875 -18.6527099609375
-1215.647705078125 -1348.37646484375 -387.2530517578125
265.0076904296875 -748.3703002929688 -21.3262939453125
-518.64306640625 -424.68780517578125 -137.544189453125
269.3692626953125 -746.784423828125 -21.739013671875
-717.837158203125 -916.879150390625 -598.0443115234375
257.561767578125 -733.5885009765625 -19.096923828125
273.3626708984375 -727.770751953125 -20.125732421875
294.0316162109375 -41.6839599609375 125.5892333984375
273.9791259765625 -727.5489501953125 -20.19970703125
273.5614013671875 -726.7464599609375 -20.04541015625
298.5035400390625 -736.2930297851562 -25.1473388671875
295.3402099609375 -755.2408447265625 -28.353271484375
300.48193359375 -739.7340087890625 -26.2662353515625
214.5062255859375 411.1412353515625 124.8145751953125
-260.591064453125 204.615478515625 174.3785400390625
273.5458984375 232.489501953125 82.40283203125
291.740478515625 198.7789306640625 124.3878173828125
498.12939453125 205.5047607421875 109.2781982421875
242.7940673828125 280.6302490234375 104.2684326171875
-759.581298828125 -707.1171875 -477.3470458984375
267.241943359375 251.21533203125 77.57275390625
235.9388427734375 243.1033935546875 101.5042724609375
-709.399658203125 -880.821044921875 -594.631103515625
-32.784912109375 368.3253173828125 228.99139404296875
310.603759765625 204.2191162109375 113.5064697265625
263.515380859375 259.0013427734375 78.26904296875
343.556884765625 -5.022216796875 76.810546875
265.044189453125 250.59130859375 78.9039306640625
268.649658203125 286.681640625 80.3397216796875
314.1162109375 233.7332763671875 72.99072265625
249.4041748046875 214.5596923828125 107.0457763671875
243.034423828125 281.201904296875 104.3660888671875
-789.17333984375 -873.5618286132812 -589.6934814453125
-64.035888671875 184.2904052734375 230.922119140625
274.820068359375 221.671630859375 90.9859619140625
146.894775390625 -686.6803588867188 -2.9185791015625
-140.963623046875 -403.24609375 51.4866943359375
139.5869140625 -345.97784423828125 -12.9049072265625
-26.4530029296875 1181.1866455078125 337.43798828125
126.582763671875 -139.799560546875 160.6815185546875
15.870361328125 -64.27880859375 213.079345703125
-28.5029296875 -457.5577392578125 63.0645751953125
117.984619140625 72.6861572265625 179.8775634765625
-708.863525390625 -724.83642578125 -491.0755615234375
208.5155029296875 -594.5177612304688 -3.9208984375
301.6033935546875 -9.3988037109375 92.9952392578125
248.87841796875 -560.733154296875 4.1741943359375
228.2923583984375 -596.82958984375 -4.2103271484375
184.677734375 -585.775634765625 -0.6514892578125
223.5399169921875 -588.4744873046875 -1.61962890625
-267.6668701171875 -226.8798828125 79.5311279296875
-225.806396484375 -244.3485107421875 87.2015380859375
-4.7265625 -462.2347412109375 55.5479736328125
79.099853515625 -556.86328125 -1.59716796875
-235.0205078125 -248.671875 81.83251953125
193.9521484375 -757.7520751953125 -19.719482421875
-23.71240234375 338.4517822265625 236.66357421875
-287.9267578125 129.2447509765625 199.8826904296875
155.4757080078125 -683.8402099609375 -5.5250244140625
-22.773681640625 338.7750244140625 236.458984375
-242.853759765625 -214.779296875 96.9281005859375
-403.744140625 496.0042724609375 177.7518310546875
219.673583984375 -616.2489013671875 -7.7159423828125
-696.8804931640625 -908.522216796875 -595.298828125
447.378662109375 353.2581787109375 73.6368408203125
201.23779296875 -579.7364501953125 -2.102294921875
342.31683349609375 2.6590576171875 71.5364990234375
-224.28466796875 -246.88671875 86.2237548828125
-257.644287109375 -185.2161865234375 101.1395263671875
454.5078125 387.205810546875 52.7781982421875
466.1375732421875 357.8502197265625 57.5694580078125
231.508544921875 -567.650634765625 1.9576416015625
15.5650634765625 -457.70166015625 46.595458984375
138.548583984375 39.5723876953125 165.38134765625
135.82958984375 43.1148681640625 168.2020263671875
342.3201904296875 -26.864501953125 103.460693359375
-422.7332763671875 -302.5377197265625 -29.4259033203125
-412.52099609375 -360.69342041015625 -59.6854248046875
-367.486083984375 508.0740966796875 167.1802978515625
-256.02734375 -149.090087890625 107.6292724609375
523.2119140625 -615.6008911132812 -21.5140380859375
