16.3302001953125 2.9172000885009766 124.13399505615234
-251.21578979492188 -28.233598709106445 -31.599597930908203
6.915599346160889 31.569000244140625 119.8499984741211
-38.33159637451172 -61.80179977416992 103.47900390625
-12.984599113464355 -44.971797943115234 114.64801025390625
-251.1239776611328 -18.48240089416504 -30.94679832458496
-254.39820861816406 -30.181798934936523 -25.448997497558594
31.997398376464844 95.69639587402344 -25.76519775390625
-2.6316001415252686 77.10179138183594 100.54138946533203
49.32720184326172 -136.12918090820312 7.955999851226807
10.322399139404297 17.95199966430664 122.76719665527344
-12.821399688720703 -129.80519104003906 36.91379928588867
53.845794677734375 -136.36380004882812 18.92099952697754
114.90299987792969 73.07280731201172 80.14140319824219
3.7230000495910645 99.68460845947266 82.8342056274414
28.845598220825195 93.34020233154297 87.48540496826172
6.884999752044678 129.41758728027344 22.725597381591797
33.313201904296875 118.28939056396484 44.60459518432617
-61.18980026245117 -142.0247802734375 24.735000610351562
23.827199935913086 17.493000030517578 121.13519287109375
115.208984375 60.01679611206055 92.07539367675781
131.21279907226562 -48.13379669189453 116.6369857788086
-10.750800132751465 112.0877914428711 69.13560485839844
-30.997798919677734 4.090199947357178 124.17479705810547
-6.864599227905273 -86.61839294433594 88.4441909790039
21.828001022338867 -135.00718688964844 32.35439682006836
11.403599739074707 -56.16120147705078 107.4263916015625
32.109596252441406 -132.7325897216797 27.22380256652832
35.49599838256836 -117.83040618896484 -44.00279998779297
-226.99078369140625 109.35420989990234 29.89620018005371
19.31879997253418 119.37060546875 16.13640022277832
36.689395904541016 -122.58358764648438 -36.04679870605469
134.63998413085938 -103.11180114746094 52.234195709228516
-4.406399726867676 -91.36139678955078 84.48660278320312
15.993599891662598 118.71780395507812 49.551597595214844
-252.2154083251953 17.1156005859375 9.108598709106445
-73.42980194091797 -155.8253936767578 -16.1466007232666
20.042999267578125 28.192798614501953 -83.8031997680664
22.378801345825195 8.731200218200684 122.10417938232422
18.502798080444336 -128.1119842529297 40.00440216064453
-2.3867998123168945 -79.51921081542969 94.79879760742188
2.1011998653411865 -132.27359008789062 33.51719665527344
-253.57199096679688 -2.9273998737335205 -0.27539998292922974
-252.6845703125 2.560199737548828 -19.135196685791016
-60.85319519042969 -158.9466094970703 -18.186599731445312
72.38939666748047 104.34599304199219 33.33359909057617
35.455196380615234 -92.51399993896484 -70.77780151367188
-252.4703826904297 -20.3489990234375 -27.437999725341797
161.49658203125 -29.416799545288086 102.34679412841797
-214.49578857421875 -98.87879943847656 -16.044597625732422
18.451799392700195 28.111196517944336 119.33999633789062
18.94139862060547 -134.6298065185547 34.01699447631836
15.78959846496582 32.81339645385742 118.82999420166016
-252.07260131835938 -12.933600425720215 -1.8564000129699707
33.180599212646484 119.65619659423828 32.221797943115234
13.627199172973633 -60.30239486694336 105.6719970703125
47.55239486694336 -136.81260681152344 -6.007800102233887
56.81399917602539 109.37458801269531 29.69219970703125
9.312600135803223 -116.38199615478516 58.731597900390625
302.4912109375 -19.50240135192871 -11.780999183654785
36.424198150634766 28.8966007232666 117.381591796875
-33.82320022583008 142.3511962890625 6.160799980163574
311.2530212402344 -0.43859997391700745 -18.5945987701416
69.83940124511719 6.864599227905273 116.72879791259766
43.36019515991211 111.65939331054688 17.146198272705078
13.739398956298828 -84.20098876953125 91.6266098022461
19.951200485229492 98.53199768066406 83.58900451660156
31.33439826965332 85.65959167480469 92.88118743896484
4.069799900054932 -109.68060302734375 -67.06500244140625
-250.79757690429688 -2.284799814224243 19.910398483276367
-48.70499801635742 -137.81219482421875 29.76359748840332
26.29559898376465 -117.55500793457031 58.517398834228516
43.4010009765625 24.255599975585938 117.50399780273438
-210.46681213378906 -108.81360626220703 -29.89620018005371
0.22439999878406525 69.80879974365234 106.29418182373047
32.3849983215332 -131.13121032714844 -26.407794952392578
33.33359909057617 114.6174087524414 16.08540153503418
-59.986202239990234 50.082000732421875 111.97560119628906
25.41840171813965 -132.8345947265625 -27.70319938659668
35.78160095214844 -136.72079467773438 -9.414599418640137
-253.45977783203125 32.21159744262695 -18.74759864807129
38.45399856567383 97.19580078125 80.12100219726562
-211.67039489746094 -110.4251937866211 -14.014801025390625
-227.59262084960938 76.5204086303711 -76.67339324951172
-1.0505999326705933 84.44580078125 94.84980010986328
97.38960266113281 88.40339660644531 68.58479309082031
15.381600379943848 10.363199234008789 123.59339141845703
-252.33778381347656 6.976799011230469 -25.71419906616211
20.63460350036621 -126.80640411376953 46.981197357177734
25.571399688720703 120.89039611816406 34.64939880371094
89.02559661865234 94.18679809570312 64.3926010131836
117.16739654541016 76.92839050292969 65.77978515625
-6.130199909210205 89.66819763183594 91.58580017089844
-3.641400098800659 -126.03119659423828 44.72700119018555
-253.8983612060547 -10.434598922729492 -9.771600723266602
301.7669982910156 33.38459396362305 -83.81339263916016
22.97039794921875 27.91739845275879 118.78919219970703
6.069000244140625 -125.13359069824219 44.9004020690918
24.93899917602539 -109.29299926757812 68.2380142211914
6.262800216674805 39.09659957885742 117.61619567871094
17.044198989868164 53.17259216308594 111.47578430175781
-1.0709999799728394 112.85279846191406 67.20780181884766
-16.003801345825195 72.17520141601562 104.33580017089844
-13.208999633789062 -97.81800079345703 78.31559753417969
124.29721069335938 -64.3926010131836 111.27178955078125
81.27360534667969 -132.1818084716797 -2.753999948501587
3.865800142288208 112.67938995361328 66.8916015625
18.49260139465332 -39.8411979675293 115.23959350585938
36.28139877319336 100.37820434570312 76.65299987792969
19.186201095581055 -106.17179870605469 -64.55580139160156
155.7947998046875 -61.40399932861328 92.49360656738281
64.3926010131836 -68.13599395751953 102.53040313720703
-253.16400146484375 -12.393000602722168 -14.453399658203125
-251.83799743652344 16.105798721313477 -33.71099853515625
-248.5841827392578 64.78019714355469 25.60199737548828
-230.54042053222656 -75.47999572753906 -27.631799697875977
-10.291799545288086 -1.642200231552124 126.45958709716797
-20.124597549438477 90.07620239257812 92.11619567871094
-191.58657836914062 124.18498229980469 42.829795837402344
15.503999710083008 81.58979797363281 98.24639892578125
-254.28599548339844 46.97100067138672 13.423200607299805
-10.760998725891113 -127.95899963378906 41.69759750366211
16.636199951171875 23.643600463867188 120.5436019897461
-255.68336486816406 19.583999633789062 -11.321999549865723
26.530200958251953 -138.1793975830078 -17.482799530029297
-90.23939514160156 -150.2052001953125 -15.555001258850098
-230.4077911376953 123.83819580078125 -11.2608003616333
290.5979919433594 -1.0200001001358032 14.473800659179688
157.56959533691406 -85.40459442138672 64.56600189208984
252.34799194335938 -101.00039672851562 -30.56939697265625
-32.44620132446289 123.28740692138672 58.3440055847168
-253.59242248535156 11.556600570678711 2.478600025177002
-260.34478759765625 94.47239685058594 -18.145801544189453
-78.40740203857422 -154.20358276367188 -13.984198570251465
4.406399726867676 75.24539184570312 103.05060577392578
-103.14240264892578 -139.09739685058594 -43.013397216796875
-3.7433996200561523 107.57939147949219 73.48078918457031
-8.17020034790039 27.509401321411133 121.71660614013672
22.929597854614258 -36.720001220703125 115.27021026611328
0.8159999251365662 -97.76699829101562 79.48859405517578
-13.0152006149292 129.64199829101562 19.533000946044922
18.1560001373291 -111.3023910522461 65.42279815673828
-21.399599075317383 79.64159393310547 98.8073959350586
-77.53019714355469 -150.91920471191406 5.834400177001953
-96.33899688720703 51.59160232543945 107.497802734375
-246.31980895996094 -21.14459800720215 -51.397796630859375
22.225799560546875 121.44119262695312 41.42219924926758
-12.790799140930176 118.27920532226562 61.301998138427734
27.49920082092285 112.46519470214844 56.477394104003906
11.230198860168457 32.884796142578125 119.07479858398438
-14.575798988342285 -135.1602020263672 28.488597869873047
46.31820297241211 105.16199493408203 64.52519989013672
-126.39839172363281 -138.30178833007812 -8.741399765014648
-7.854000091552734 129.49917602539062 21.256799697875977
-22.990798950195312 115.27021026611328 65.7593994140625
13.627199172973633 114.80098724365234 58.44599914550781
143.40179443359375 -76.5204086303711 88.75019836425781
37.944000244140625 -136.09860229492188 -12.046198844909668
130.8966064453125 -112.31219482421875 25.234798431396484
30.62040138244629 -138.53640747070312 12.433798789978027
98.22599792480469 -129.89700317382812 19.59419822692871
-251.05259704589844 -32.02799606323242 -32.527801513671875
-15.310200691223145 -46.38960266113281 113.72999572753906
-248.7779998779297 -43.67639923095703 -33.25199890136719
115.13760375976562 85.84320068359375 32.650203704833984
-29.81460189819336 -141.2904052734375 -43.29899597167969
-253.13339233398438 0.8465999960899353 -8.986198425292969
-27.33599853515625 -132.1409912109375 33.33359909057617
20.940597534179688 -4.600200176239014 122.71619415283203
7.364400386810303 -123.35880279541016 -54.60060501098633
132.1103973388672 -41.11619567871094 115.34160614013672
-209.98741149902344 -111.24119567871094 -24.55139923095703
162.8328094482422 -51.42839813232422 93.43199920654297
181.85580444335938 -56.365196228027344 67.83000183105469
113.46479797363281 64.98419952392578 91.24919891357422
130.80479431152344 -56.12039566040039 112.05719757080078
-251.38917541503906 -4.691999912261963 -26.968799591064453
311.4773864746094 8.160000801086426 -61.924198150634766
46.12439727783203 111.24119567871094 49.76580047607422
-241.6176300048828 5.671199798583984 -56.70180130004883
11.199599266052246 76.66319274902344 102.21419525146484
27.42780113220215 4.294199466705322 121.62480163574219
65.97360229492188 -125.3783950805664 -21.450597763061523
0.10199999064207077 -115.9229965209961 -61.94459915161133
-1.1423999071121216 54.44760513305664 113.62799835205078
79.99858856201172 96.77759552001953 73.88880157470703
-253.79641723632812 -3.9881997108459473 -10.64880084991455
73.5011978149414 102.01020050048828 19.053600311279297
-85.74119567871094 76.90799713134766 99.90898895263672
-245.42221069335938 -30.610197067260742 -53.10120391845703
-245.71800231933594 36.97499465942383 28.172401428222656
36.6995964050293 109.28279113769531 59.94539260864258
32.7318000793457 108.55860137939453 70.57379913330078
-3.9779999256134033 -97.72620391845703 79.2947998046875
14.21880054473877 -124.68478393554688 -47.31779861450195
12.811199188232422 46.15499496459961 115.00501251220703
15.422399520874023 100.18439483642578 82.95660400390625
-37.62779998779297 28.52939796447754 120.064208984375
132.66119384765625 -63.77039337158203 105.17221069335938
132.34500122070312 -30.130802154541016 116.89199829101562
1.3158000707626343 97.13459014892578 84.92520141601562
-54.27419662475586 62.46480178833008 108.60960388183594
92.15699768066406 95.10478973388672 33.486602783203125
136.32301330566406 -50.87759780883789 108.90540313720703
70.97161102294922 81.15119934082031 94.06439971923828
26.091602325439453 -54.263999938964844 -84.69059753417969
-218.6676025390625 -86.77140045166016 -5.824200630187988
-221.4011993408203 -83.07899475097656 -11.760599136352539
-34.28219985961914 16.289400100708008 122.37960052490234
113.3117904663086 86.7815933227539 36.80160140991211
132.81417846679688 -66.22859954833984 103.43820190429688
168.75900268554688 44.64539337158203 76.81619262695312
31.966798782348633 70.29839324951172 103.30559539794922
-257.906982421875 57.650394439697266 -1.0200001001358032
14.06579875946045 -88.65839385986328 -76.56120300292969
309.9984130859375 -0.45899999141693115 -53.0297966003418
300.97137451171875 25.510202407836914 -87.55679321289062
-252.1337890625 13.157999992370605 10.465200424194336
77.29560089111328 84.04798889160156 89.95379638671875
310.4369812011719 3.5190000534057617 -49.663795471191406
34.292396545410156 107.45700073242188 64.55580139160156
50.183998107910156 110.53739166259766 42.94199752807617
-253.4700164794922 5.660999774932861 -1.7340002059936523
-15.748800277709961 68.19719696044922 106.70219421386719
127.71419525146484 67.20780181884766 68.44200134277344
-254.14320373535156 36.99539566040039 -23.021398544311523
36.30179977416992 83.59919738769531 95.08439636230469
267.239990234375 -33.139801025390625 38.209197998046875
166.0152130126953 -17.52359962463379 99.91920471191406
121.27799987792969 -122.18579864501953 17.095197677612305
-0.1427999883890152 74.94960021972656 102.76498413085938
14.320798873901367 66.04499816894531 109.01759338378906
-252.8682098388672 -6.67080020904541 -16.96259880065918
114.81119537353516 41.48340606689453 106.0698013305664
-47.287200927734375 61.19999313354492 109.40519714355469
3.7433996200561523 -126.05160522460938 43.4010009765625
15.983399391174316 71.09400177001953 104.88660430908203
45.808197021484375 -5.84459924697876 119.89078521728516
-29.69219970703125 -152.1840057373047 -9.006600379943848
23.204998016357422 -126.622802734375 45.0432014465332
112.50598907470703 -20.145000457763672 -79.41719818115234
43.543800354003906 108.58919525146484 57.48719787597656
67.4219970703125 -125.5619888305664 51.0713996887207
-253.23541259765625 7.680600166320801 3.865800142288208
20.604000091552734 110.4761962890625 74.22539520263672
106.14119720458984 -118.58519744873047 -12.974401473999023
5.793600082397461 19.624799728393555 122.71619415283203
-237.87417602539062 -1.36680006980896 -66.68760681152344
36.51599884033203 70.9511947631836 101.04119873046875
46.583396911621094 -131.27401733398438 31.242597579956055
-247.52342224121094 -46.685401916503906 -30.997798919677734
27.91739845275879 -0.1427999883890152 121.63499450683594
56.96699905395508 -81.08999633789062 -62.352596282958984
11.536200523376465 119.22779846191406 53.580604553222656
27.509401321411133 -139.739990234375 -11.505599975585938
3.651599884033203 46.5426025390625 115.36199951171875
302.50140380859375 37.17900085449219 -70.63500213623047
-244.09620666503906 1.39739990234375 -50.683799743652344
-13.474200248718262 -119.88059997558594 51.48960494995117
36.78120040893555 -109.7315902709961 69.08460235595703
91.17780303955078 95.64539337158203 55.865394592285156
-33.17039489746094 -152.7041778564453 -27.06060218811035
150.90899658203125 27.86640167236328 99.95999145507812
-157.0391845703125 -117.99360656738281 31.75259780883789
-65.66759490966797 -157.28399658203125 -15.942598342895508
20.175601959228516 102.09181213378906 80.32499694824219
-3.5291998386383057 112.2612075805664 68.9417953491211
112.41419219970703 54.702598571777344 99.78660583496094
-21.43019676208496 50.93880081176758 117.75899505615234
-261.2627868652344 80.7533950805664 -13.168198585510254
92.24879455566406 95.59439849853516 38.67839813232422
20.858997344970703 117.42240905761719 50.36759948730469
-9.516600608825684 128.49960327148438 35.40420150756836
-6.354600429534912 -125.2763900756836 47.929805755615234
15.126598358154297 96.95099639892578 86.77140045166016
-247.1562042236328 2.3255996704101562 24.867597579956055
41.06520462036133 -77.6832046508789 97.13459014892578
14.892000198364258 -148.25698852539062 0.2550000250339508
-75.84719848632812 -35.802001953125 107.80380249023438
-231.47879028320312 -70.68599700927734 -35.26140213012695
111.56758880615234 77.94839477539062 78.08100128173828
-9.628800392150879 18.400800704956055 124.1033935546875
-97.19580078125 66.10619354248047 100.88819885253906
-243.57601928710938 -37.8317985534668 -55.90619659423828
69.79859924316406 53.3765983581543 109.45619201660156
4.977599620819092 67.14659118652344 107.73240661621094
35.251197814941406 -97.09380340576172 -65.6880111694336
29.518798828125 -132.97740173339844 28.865999221801758
-10.954798698425293 65.99400329589844 109.10939025878906
63.12779998779297 105.14159393310547 60.77159881591797
6.221999168395996 -150.2052001953125 -8.833199501037598
26.57099723815918 -114.57659912109375 -54.17219543457031
22.031999588012695 85.74119567871094 93.25860595703125
0.9587999582290649 93.22798919677734 88.00559997558594
2.8968000411987305 -45.78779983520508 113.71980285644531
-253.8372039794922 23.56199836730957 3.3456003665924072
