50.224796295166016 -30.273601531982422 112.95478820800781
-45.53280258178711 -66.4325942993164 -89.46419525146484
-28.998598098754883 -22.3583984375 -99.10319519042969
-40.10639572143555 5.3958001136779785 121.91039276123047
-50.60219955444336 0.0713999941945076 -104.52960205078125
-43.10519790649414 -74.3069839477539 -86.11860656738281
86.40420532226562 68.21759796142578 98.01179504394531
-55.62059783935547 2.6111998558044434 -104.631591796875
-55.77360534667969 3.9372000694274902 -104.48878479003906
-146.676025390625 -92.27940368652344 57.22200012207031
-142.87139892578125 -87.80160522460938 61.475399017333984
52.621803283691406 -28.90679931640625 113.45460510253906
-45.47159957885742 -62.38319778442383 -90.85139465332031
-55.926605224609375 5.263200283050537 -104.34599304199219
-73.92960357666016 -37.14839553833008 -102.93839263916016
65.42279815673828 -11.536200523376465 -81.68160247802734
85.24140930175781 -10.322399139404297 114.056396484375
28.72319984436035 6.456599712371826 -86.55719757080078
98.70540618896484 -11.413799285888672 -83.22179412841797
82.79339599609375 -13.55579948425293 -80.93699645996094
131.1719970703125 77.81578826904297 18.013200759887695
83.94599914550781 -11.240400314331055 -81.12059783935547
83.34420776367188 -12.393000602722168 -81.02879333496094
47.81760025024414 -20.33880043029785 116.0250015258789
99.71520233154297 6.864599227905273 114.29100036621094
-63.617393493652344 -55.865394592285156 -95.02320098876953
103.98899841308594 31.018199920654297 -80.74319458007812
74.01119232177734 8.996399879455566 -78.72359466552734
-149.3585968017578 -92.70780181884766 55.84500503540039
87.42418670654297 -14.677801132202148 114.41341400146484
-152.37779235839844 -77.71379852294922 64.15799713134766
-126.93899536132812 -45.808197021484375 85.20059967041016
-35.46540069580078 -19.736997604370117 -100.68421173095703
-126.70439147949219 -87.54660034179688 66.07559967041016
17.482799530029297 -35.46540069580078 -86.69999694824219
-126.65338897705078 -88.58698272705078 65.1167984008789
1.9889999628067017 -52.703399658203125 -85.30259704589844
-126.53099822998047 -91.86119842529297 62.45458984375
-115.22940826416016 -31.018199920654297 -110.83318328857422
-126.714599609375 -94.0949935913086 60.43499755859375
73.3380126953125 -14.116799354553223 113.40360260009766
-126.6023941040039 -93.00359344482422 61.5059928894043
-52.07099914550781 -22.7969970703125 -101.46958923339844
-45.22679901123047 -51.44880294799805 -93.99299621582031
42.48299789428711 40.024803161621094 112.6488037109375
77.1731948852539 85.1904067993164 88.84199523925781
87.56700134277344 2.560199737548828 -81.52859497070312
-81.84480285644531 -54.29459762573242 97.11419677734375
-1.4891999959945679 -17.768400192260742 -94.31939697265625
-45.267601013183594 -50.010597229003906 -94.10519409179688
-45.28799819946289 -48.5723991394043 -94.18679809570312
-45.29819869995117 -47.14440155029297 -94.38059997558594
-53.060401916503906 -25.979398727416992 114.98460388183594
84.87419891357422 -18.676197052001953 112.9241943359375
-54.284393310546875 -21.54239845275879 -101.9795913696289
-53.41740036010742 -12.13800048828125 -104.34599304199219
85.6697998046875 -17.288997650146484 -80.59020233154297
89.26019287109375 -20.369400024414062 113.93399810791016
1.9686000347137451 -51.33660125732422 -85.60860443115234
85.94519805908203 6.089400291442871 -81.11038970947266
84.86399841308594 8.506799697875977 -81.02879333496094
-28.825197219848633 -21.022197723388672 -99.37859344482422
-127.46939086914062 -96.0635986328125 58.680599212646484
-127.82640838623047 -97.03260040283203 57.782997131347656
56.17140197753906 -13.872001647949219 -80.88599395751953
-9.475800514221191 42.350399017333984 116.70838928222656
17.819400787353516 16.901399612426758 -87.40380096435547
-81.07979583740234 -1.36680006980896 112.17960357666016
40.32060241699219 41.432395935058594 -73.55219268798828
-128.18341064453125 -97.96080017089844 56.824195861816406
-151.4189910888672 -92.06520080566406 55.661399841308594
50.75519561767578 7.262399673461914 -81.43679809570312
100.14360046386719 29.732999801635742 -81.4164047241211
94.47239685058594 10.210200309753418 -82.73219299316406
-51.80580139160156 -20.155200958251953 -102.22439575195312
92.45280456542969 8.914800643920898 -82.5486068725586
-129.2747802734375 -100.8677978515625 54.1212043762207
-163.4345703125 -113.27099609375 28.580400466918945
-128.93820190429688 -99.92939758300781 55.049400329589844
-124.83779907226562 -67.48320007324219 75.70439910888672
56.04899978637695 8.231400489807129 117.76921081542969
60.46560287475586 9.475800514221191 117.19801330566406
-48.87839889526367 29.386199951171875 117.42240905761719
57.92580032348633 10.84260082244873 117.09600067138672
60.62880325317383 8.312999725341797 118.08539581298828
-54.88620376586914 -0.9995999932289124 118.68719482421875
-155.7947998046875 0.9995999932289124 -119.88059997558594
58.313392639160156 8.221199035644531 117.66719818115234
83.52780151367188 0.0713999941945076 -80.74319458007812
55.895992279052734 9.547199249267578 117.61619567871094
115.29060363769531 15.73859977722168 -78.19319915771484
-152.58181762695312 -80.06999969482422 63.34199905395508
-152.79598999023438 -80.93699645996094 62.444400787353516
1.9889999628067017 -50.010597229003906 -86.09820556640625
-41.99340057373047 7.0074005126953125 -102.75479888916016
-51.132598876953125 -43.176597595214844 109.49700164794922
46.32839584350586 58.55820083618164 105.04979705810547
-109.68060302734375 -47.87879943847656 90.50460052490234
-96.36959075927734 -21.01199722290039 -110.37418365478516
-111.79198455810547 -47.74620056152344 89.65798950195312
74.40899658203125 88.29119873046875 85.43519592285156
-2.24399995803833 -51.73440170288086 -86.96520233154297
-93.25860595703125 -98.50140380859375 -76.44900512695312
69.3600082397461 -9.24120044708252 -82.35478973388672
96.08399963378906 -2.9681999683380127 115.65779113769531
71.44078826904297 -10.353001594543457 -82.81379699707031
-120.56399536132812 -69.32939910888672 77.0508041381836
-36.362998962402344 -48.18479537963867 -92.25898742675781
-94.9823989868164 -43.16640090942383 -104.72339630126953
-109.76219177246094 -49.22520446777344 90.15779876708984
130.131591796875 77.97899627685547 8.476201057434082
123.78719329833984 13.90259838104248 -75.39839172363281
-49.13339614868164 -39.01499938964844 -97.35900115966797
-62.556602478027344 -36.61799621582031 -100.07219696044922
-51.28559875488281 -37.64820098876953 -97.81800079345703
82.5486068725586 25.795801162719727 -78.6216049194336
21.481199264526367 -12.556199073791504 -89.44380187988281
-48.959999084472656 -37.64820098876953 -97.73640441894531
-38.25 -87.55679321289062 -81.39599609375
-46.87920379638672 -38.92319869995117 -96.81840515136719
-37.49519729614258 -18.72719955444336 119.98258972167969
7.446000099182129 14.912399291992188 -90.56578826904297
-64.80059814453125 -36.689395904541016 -100.65359497070312
-109.82339477539062 -50.55119705200195 89.71919250488281
9.628800392150879 14.7593994140625 -90.01498413085938
-44.11499786376953 -34.68000411987305 -97.36918640136719
-130.69259643554688 -0.4997999966144562 -119.0033950805664
-43.961997985839844 -33.313201904296875 -97.73640441894531
113.23019409179688 -11.373000144958496 -79.25399780273438
-75.84719848632812 -35.802001953125 107.80380249023438
-43.27859878540039 -27.91739845275879 -99.3887939453125
-93.77880096435547 -16.74839973449707 105.6924057006836
26.887197494506836 37.73999786376953 115.07640838623047
-111.81239318847656 -52.78499221801758 87.45480346679688
19.59419822692871 -36.66900634765625 -86.10840606689453
-113.88299560546875 -51.356998443603516 87.06719207763672
-41.84040451049805 5.660999774932861 -102.85679626464844
-74.35800170898438 0.9995999932289124 -107.40599822998047
-96.37979125976562 -22.429798126220703 -110.2416000366211
-53.90699768066406 -17.53380012512207 -103.07099151611328
-139.9541778564453 -85.28219604492188 64.4843978881836
-113.94418334960938 -52.672794342041016 86.68980407714844
-93.90119934082031 -18.247798919677734 105.63117980957031
-52.69320297241211 -0.9587999582290649 119.20740509033203
-96.37979125976562 -23.827199935913086 -110.12939453125
-114.06660461425781 -55.314598083496094 86.00640106201172
-87.32219696044922 -9.608399391174316 108.94619750976562
-109.82339477539062 -55.538997650146484 87.43440246582031
-137.67959594726562 -87.70979309082031 63.12779998779297
-6.660599231719971 -2.998800039291382 -96.4308090209961
80.35559844970703 13.147799491882324 -79.5498046875
-137.94479370117188 -88.6073989868164 62.28119659423828
-120.23760223388672 -58.39500045776367 81.82439422607422
-11.74020004272461 16.768800735473633 124.1033935546875
-142.64700317382812 -86.9448013305664 62.38319778442383
117.03479766845703 8.2110013961792 -78.0197982788086
77.81578826904297 12.84179973602295 -78.52980041503906
-52.142398834228516 -51.56099319458008 -94.76819610595703
24.347400665283203 -6.568800926208496 -88.88279724121094
78.32579803466797 11.678999900817871 -78.85619354248047
-135.97621154785156 3.875999927520752 -120.431396484375
-33.007198333740234 -21.68520164489746 120.14579010009766
-143.11619567871094 -88.73999786376953 60.638999938964844
-31.71179962158203 13.208999633789062 122.75699615478516
-138.18960571289062 -89.49480438232422 61.43460464477539
118.94219207763672 9.383999824523926 -77.31600189208984
-143.4119873046875 -89.69879913330078 59.89439392089844
-140.943603515625 -90.06600189208984 60.220794677734375
-0.8873999714851379 19.757400512695312 122.94060516357422
87.56700134277344 85.21080017089844 83.74199676513672
-41.63640213012695 -10.546798706054688 -103.11180114746094
38.280601501464844 40.534793853759766 -74.48038482666016
-109.60920715332031 -59.08859634399414 85.44539642333984
-138.9443817138672 -92.33040618896484 58.996803283691406
-138.73019409179688 -91.42259979248047 59.86379623413086
15.055198669433594 44.2781982421875 114.5459976196289
-109.5479965209961 -60.30239486694336 84.81299591064453
148.93019104003906 8.60879898071289 -73.3073959350586
-30.283798217773438 -12.943800926208496 -101.00039672851562
-111.6287841796875 -60.06780242919922 83.93579864501953
34.292396545410156 -44.86980056762695 -81.93659973144531
-41.38139343261719 -6.487200736999512 -103.3565902709961
-150.34800720214844 -96.4511947631836 52.34640121459961
-113.70958709716797 -59.83320236206055 83.03819274902344
-176.25599670410156 -118.11599731445312 -12.892800331115723
-36.01620101928711 -88.9236068725586 -80.26380157470703
-172.42079162597656 -118.33019256591797 -12.576600074768066
-17.13599967956543 1.2749998569488525 125.62318420410156
-55.02899932861328 0.5100000500679016 118.7483901977539
42.564605712890625 35.8734016418457 114.09719848632812
-41.15700149536133 -2.4173998832702637 -103.38719177246094
-143.90159606933594 -91.5551986694336 58.201194763183594
-76.91820526123047 -53.315406799316406 -98.07301330566406
-74.65380096435547 -51.93839645385742 -98.4197998046875
-114.7704086303711 -18.34979820251465 -113.23019409179688
-141.8717803955078 -93.77880096435547 56.86499786376953
15.187800407409668 41.340599060058594 115.51500701904297
6.334199905395508 7.027799129486084 -92.30998992919922
-76.76519775390625 -49.1741943359375 -99.88859558105469
-51.214195251464844 -44.56379699707031 108.89521026611328
-74.65380096435547 -49.00080108642578 -99.12360382080078
73.40939331054688 -16.93199920654297 112.65899658203125
-139.372802734375 -94.18679809570312 57.324005126953125
-125.10299682617188 -74.03160095214844 73.29719543457031
-109.42560577392578 -63.94379425048828 83.04839324951172
5.620200157165527 55.314598083496094 111.87358856201172
-111.59820556640625 -63.882598876953125 82.49758911132812
-35.24100112915039 -20.20619773864746 120.10499572753906
-109.49700164794922 -62.791202545166016 83.76239013671875
-39.67799758911133 -9.761399269104004 121.1045913696289
-109.32360076904297 -65.07599639892578 82.28339385986328
-142.31039428710938 -95.66578674316406 55.18199920654297
51.62220001220703 -25.275598526000977 -80.82479095458984
-74.64360046386719 -47.59320068359375 -99.63360595703125
-113.76060485839844 -65.96339416503906 80.41681671142578
-109.4154052734375 -66.29999542236328 81.57960510253906
-3.4883995056152344 -32.61960220336914 -91.35120391845703
77.26499938964844 14.014801025390625 -78.26460266113281
-145.09500122070312 -96.29820251464844 54.03959655761719
91.21859741210938 -16.095600128173828 -80.32499694824219
-161.51699829101562 -93.62580108642578 51.795597076416016
18.99239730834961 -12.464400291442871 -90.0558090209961
-107.40599822998047 -46.6343994140625 91.52458953857422
-46.471195220947266 3.7026002407073975 120.62519836425781
-76.70399475097656 -5.997600078582764 -107.25299835205078
129.19320678710938 -0.47939997911453247 -74.58238983154297
-106.20240783691406 -81.56939697265625 73.94998931884766
38.198997497558594 34.537200927734375 114.98460388183594
-20.236799240112305 -84.08879089355469 -79.80480194091797
66.85079956054688 38.45399856567383 -69.77820587158203
-20.29800033569336 -82.79339599609375 -80.20259857177734
-46.195796966552734 -8.312999725341797 120.02339172363281
-144.03421020507812 -77.92799377441406 67.4729995727539
-22.878599166870117 -52.16279983520508 -89.17859649658203
84.29280090332031 19.186201095581055 111.60840606689453
-47.87879943847656 -27.988798141479492 -99.6948013305664
-146.5229949951172 -79.13160705566406 66.84060668945312
-48.91919708251953 -43.24799728393555 109.90499877929688
-141.6678009033203 -76.8875961303711 68.57459259033203
-38.3213996887207 -90.56578826904297 -79.73340606689453
-95.98199462890625 -63.45419692993164 -95.40059661865234
-144.09539794921875 -79.17240142822266 67.09559631347656
16.197601318359375 28.162200927734375 119.44200134277344
-143.97299194335938 -76.72440338134766 67.98300170898438
14.606399536132812 56.12039566040039 110.03760528564453
-156.10081481933594 4.008599758148193 -119.9010009765625
-141.7595977783203 -78.13200378417969 68.22779846191406
60.82260513305664 -21.562801361083984 -79.6823959350586
90.3414077758789 -13.525200843811035 -81.06958770751953
-18.502798080444336 -8.619000434875488 -99.07260131835938
-56.75279998779297 -51.56099319458008 -95.07418823242188
-18.400800704956055 -7.282800197601318 -99.11339569091797
-144.22799682617188 -80.44740295410156 66.80999755859375
64.4231948852539 -8.221199035644531 -81.10020446777344
-141.84120178222656 -80.48819732666016 67.10578918457031
110.2619857788086 21.01199722290039 -80.36579895019531
-122.56319427490234 -52.356597900390625 84.07859802246094
-144.2891845703125 -81.64078521728516 66.38160705566406
-37.30139923095703 -3.6822001934051514 122.23680114746094
-146.5229949951172 -80.20259857177734 66.13679504394531
-109.96619415283203 -73.18499755859375 -92.94239044189453
-141.79019165039062 -79.30500030517578 67.6259994506836
-33.0275993347168 -23.184598922729492 119.76840209960938
-117.19801330566406 -90.59639739990234 -81.14099884033203
-93.89099884033203 -67.18739318847656 -92.91180419921875
-117.18779754638672 -89.02559661865234 -81.80400848388672
-122.54280090332031 -51.061195373535156 84.47639465332031
-117.19801330566406 -87.54660034179688 -82.64038848876953
-112.12860107421875 -12.790799140930176 -114.08698272705078
35.56739807128906 45.87960433959961 111.48600006103516
-21.389400482177734 8.812799453735352 -98.61359405517578
-105.34558868408203 -71.95079803466797 -93.41160583496094
-19.084199905395508 8.87399959564209 -98.1137924194336
-143.6772003173828 -90.63719940185547 59.08859634399414
197.94117736816406 102.78539276123047 -23.888399124145508
-61.35300064086914 -98.07301330566406 -77.99939727783203
-158.45700073242188 -114.59700012207031 32.47679901123047
-20.889598846435547 4.783799171447754 -99.0929946899414
-52.703399658203125 -9.843000411987305 118.3709945678711
-136.0067901611328 -62.42399978637695 75.37799072265625
36.48540115356445 -44.676002502441406 -81.42660522460938
-107.65080261230469 -72.15478515625 -93.93180084228516
121.01278686523438 79.64159393310547 18.890398025512695
-146.47198486328125 -82.20179748535156 64.56600189208984
-146.73719787597656 -83.11980438232422 63.73979568481445
-11.250598907470703 -58.86419677734375 -86.26139831542969
-144.40139770507812 -82.64038848876953 65.40239715576172
16.717798233032227 22.13399887084961 120.8088150024414
-144.31979370117188 -83.62979888916016 64.32119750976562
50.73479461669922 45.65519714355469 -68.66639709472656
-148.5323944091797 -81.49799346923828 64.08660125732422
-127.0307846069336 -66.06538391113281 75.61260223388672
259.7328186035156 12.637799263000488 -119.39099884033203
61.965003967285156 68.66639709472656 100.47000122070312
5.089799880981445 2.9478001594543457 125.15399932861328
-47.70539855957031 -26.632200241088867 -100.0823974609375
-9.628800392150879 18.400800704956055 124.1033935546875
-147.76739501953125 5.283600330352783 -119.96219635009766
7.915200710296631 55.23299789428711 111.85321044921875
201.74578857421875 103.37700653076172 -24.092397689819336
82.31400299072266 8.302799224853516 -80.335205078125
5.263200283050537 1.4687999486923218 125.21519470214844
47.287200927734375 40.78980255126953 -72.11399841308594
-8.87399959564209 -73.61339569091797 -82.77299499511719
-8.894399642944336 -72.26699829101562 -82.97700500488281
-77.63219451904297 -74.88839721679688 -89.2704086303711
68.33999633789062 0.06119999662041664 116.73899841308594
-141.218994140625 -91.06560516357422 59.52719497680664
99.97020721435547 24.52079963684082 -81.94679260253906
-3.315000057220459 -31.27320098876953 -91.67759704589844
2.8559999465942383 2.9681999683380127 125.42938995361328
36.8423957824707 -1.56059992313385 120.11519622802734
-50.64299774169922 -5.344799518585205 -104.69280242919922
-91.09619903564453 -95.64539337158203 -78.580810546875
34.25160217285156 -46.26719665527344 -81.82439422607422
102.21419525146484 -5.487600326538086 -84.73139953613281
-91.29000091552734 -92.48339080810547 -80.18219757080078
135.97621154785156 77.8362045288086 6.92579984664917
-93.59520721435547 -92.60580444335938 -80.4983901977539
-127.0307846069336 -67.28939819335938 74.94960021972656
-93.67679595947266 -90.9533920288086 -81.15119934082031
-73.24620056152344 -85.34339141845703 -83.84400177001953
-115.74958801269531 -61.94459915161133 80.92680358886719
-93.76860046386719 -89.23979187011719 -81.75299835205078
-91.51439666748047 -89.46419525146484 -82.09979248046875
-91.61639404296875 -87.90359497070312 -82.97700500488281
17.146198272705078 14.596199989318848 122.05319213867188
42.29939651489258 -5.854799747467041 -84.25200653076172
-45.5735969543457 -27.947996139526367 -99.52140045166016
-98.73600006103516 -53.56019592285156 91.96319580078125
-119.37060546875 2.73360013961792 -116.0250015258789
54.9984016418457 -28.91699981689453 113.35259246826172
17.30940055847168 13.137601852416992 122.25719451904297
-130.99859619140625 -82.63019561767578 68.57459259033203
7.915200710296631 53.60099792480469 112.01639556884766
78.93779754638672 83.97660064697266 87.61799621582031
24.082199096679688 -36.32220458984375 -85.15979766845703
21.2976016998291 20.461200714111328 120.53339385986328
27.366601943969727 23.929203033447266 -83.21158599853516
79.17240142822266 83.02799987792969 88.83180236816406
79.2437973022461 81.94679260253906 89.94359588623047
-92.901611328125 -51.499794006347656 -101.53080749511719
36.424198150634766 28.8966007232666 117.381591796875
79.41719818115234 80.64120483398438 90.9636001586914
21.777000427246094 14.54520034790039 121.54319763183594
-64.0457992553711 -26.10179901123047 -102.42839050292969
21.93000030517578 13.086600303649902 121.63499450683594
46.03260040283203 1.3055999279022217 -82.875
16.105798721313477 6.466800212860107 -89.8721923828125
22.5216007232666 7.272600173950195 122.15519714355469
40.37159729003906 -4.630800247192383 -84.69059753417969
79.88639831542969 74.55180358886719 95.79839324951172
36.770999908447266 -3.009000301361084 120.00301361083984
58.33379364013672 39.62699890136719 111.0270004272461
22.837800979614258 4.335000514984131 122.22660064697266
-68.33999633789062 -91.27978515625 -81.17160034179688
142.68780517578125 -6.946200370788574 -73.58280181884766
23.011199951171875 2.8559999465942383 122.26739501953125
-124.61339569091797 -53.48879623413086 82.64038848876953
-15.891599655151367 -60.25139236450195 -86.39400482177734
-26.479204177856445 -36.3323974609375 116.33100128173828
-24.225000381469727 -37.75019836425781 116.03519439697266
-26.499597549438477 -37.78079605102539 115.80060577392578
-98.86859893798828 -72.59339141845703 81.67140197753906
79.90679931640625 70.46160125732422 98.19539642333984
30.783597946166992 31.987199783325195 -79.75379180908203
-28.753799438476562 -36.35279846191406 116.07599639892578
26.264995574951172 -7.864199638366699 -88.48500061035156
-24.204601287841797 -36.3120002746582 116.59619903564453
-138.35279846191406 3.855599880218506 -120.27838897705078
-26.428197860717773 -34.894195556640625 116.8716049194336
-53.07059860229492 -6.752401351928711 -104.94779968261719
54.01921081542969 32.34419631958008 -74.15399932861328
20.563203811645508 -17.931602478027344 120.82919311523438
22.78679847717285 -17.89080047607422 120.5027847290039
59.86379623413086 16.218000411987305 -77.92799377441406
-117.31019592285156 -21.10379981994629 -112.54679870605469
19.3085994720459 -51.88739776611328 -84.48660278320312
18.308998107910156 4.365600109100342 123.05280303955078
77.38739013671875 -9.169800758361816 -81.52859497070312
14.861397743225098 -49.398597717285156 -84.79259490966797
19.3085994720459 -50.520599365234375 -84.65999603271484
17.064598083496094 -49.26599884033203 -84.63960266113281
-112.44478607177734 -18.32939910888672 -112.96499633789062
108.15060424804688 31.823999404907227 -79.28459167480469
-90.55559539794922 -51.3671989440918 -101.34719848632812
36.475196838378906 27.356401443481445 117.53459167480469
-59.30279541015625 -84.79259490966797 -82.63019561767578
-77.11199951171875 -58.89479446411133 -95.96160125732422
-98.71560668945312 -54.81480026245117 91.35120391845703
-42.350399017333984 -38.74980163574219 -95.95140838623047
-127.07160186767578 -69.84960174560547 73.90921020507812
47.63399887084961 8.57819938659668 -81.997802734375
-44.29859924316406 -36.05699920654297 -97.02239990234375
-42.177001953125 -37.382999420166016 -96.32879638671875
34.03739929199219 25.724401473999023 -81.12059783935547
21.001798629760742 -24.70439910888672 -87.84239959716797
-100.21499633789062 -108.4872055053711 -69.95160675048828
16.656600952148438 -24.9695987701416 -88.77059936523438
16.891199111938477 -23.623199462890625 -88.98480224609375
-127.1021957397461 -71.1449966430664 73.45020294189453
44.25779724121094 5.018400192260742 -82.92598724365234
-73.06260681152344 -73.47059631347656 -89.55599975585938
68.32980346679688 -1.2546000480651855 116.12699890136719
143.30999755859375 8.251799583435059 -72.76679229736328
60.82260513305664 31.018199920654297 112.63860321044922
-97.94038391113281 -110.2416000366211 -69.15599060058594
-61.40399932861328 -96.19619750976562 -78.32579803466797
19.28820037841797 -43.62540054321289 -85.31279754638672
102.71399688720703 -4.314599990844727 -84.3030014038086
-121.45140838623047 -8.78219985961914 -115.32119750976562
-97.90979766845703 -108.73199462890625 -69.98219299316406
-123.85860443115234 -80.48819732666016 70.67578887939453
-91.54499053955078 -72.51179504394531 -90.93299865722656
74.22539520263672 32.41559982299805 -73.3073959350586
-148.08358764648438 8.251799583435059 -119.95199584960938
102.70379638671875 34.77179718017578 -80.32499694824219
104.46839141845703 35.852996826171875 -79.51921081542969
115.627197265625 -13.413000106811523 119.18699645996094
-91.18798828125 -62.06699752807617 -95.91059875488281
-88.25040435791016 -51.10199737548828 -100.89839172363281
129.75421142578125 78.25440216064453 5.232600212097168
107.2835922241211 -4.406399726867676 117.23878479003906
-98.86859893798828 -27.86640167236328 -109.85399627685547
123.756591796875 -0.2550000250339508 -75.88800048828125
-150.34800720214844 8.241600036621094 -119.88059997558594
71.69580078125 -26.530200958251953 -78.43799591064453
-38.14799880981445 -41.38139343261719 -94.52339172363281
-54.9066047668457 -6.92579984664917 118.19760131835938
72.17520141601562 -25.408199310302734 -78.97860717773438
69.29879760742188 -26.38739776611328 -78.23400115966797
-3.4169998168945312 -15.218398094177246 -95.13539123535156
-131.12098693847656 -87.20999908447266 65.31060028076172
130.2030029296875 7.252199649810791 -74.32740783691406
108.4872055053711 30.59999656677246 -79.39679718017578
127.96920776367188 11.128199577331543 -74.58238983154297
58.252197265625 42.43199920654297 110.12939453125
123.03240203857422 15.146998405456543 -75.55139923095703
-73.0523910522461 -72.16500091552734 -90.17819213867188
-42.748199462890625 35.71019744873047 116.9939956665039
74.95979309082031 19.145401000976562 112.68960571289062
53.9783935546875 -32.48699951171875 -79.28459167480469
77.44860076904297 16.45260238647461 113.13838958740234
-128.9586181640625 -87.49559783935547 65.84099578857422
-128.92799377441406 -88.64820098876953 65.01480102539062
53.060401916503906 -4.834799766540527 -81.47760009765625
69.97200012207031 26.275203704833984 112.0979995727539
12.75 -49.53119659423828 -85.22099304199219
10.536600112915039 -46.981197357177734 -85.79219055175781
12.699000358581543 -48.174598693847656 -85.29239654541016
-118.18739318847656 -46.07339859008789 87.74040222167969
-83.90519714355469 -105.03960418701172 -72.32820129394531
-12.097199440002441 46.93019485473633 115.66799926757812
-41.80979537963867 -6.762600421905518 121.04339599609375
-158.67120361328125 -115.28040313720703 31.528200149536133
-95.5739974975586 -110.71080017089844 -69.61499786376953
-95.5331802368164 -108.97679138183594 -70.05359649658203
-95.50260162353516 -107.2427978515625 -70.5635986328125
26.479204177856445 30.018598556518555 -81.49799346923828
12.688798904418945 -46.80780029296875 -85.38420867919922
-111.97560119628906 -111.08819580078125 -66.20820617675781
-118.15679931640625 -48.613197326660156 86.64900207519531
58.54800033569336 19.70639991760254 -77.31600189208984
-101.26559448242188 -29.202598571777344 -109.70099639892578
-101.58180236816406 -32.915401458740234 -108.09960174560547
-100.44959259033203 -60.924598693847656 -96.9000015258789
-51.15299987792969 -36.27119827270508 -98.1240005493164
-89.84159088134766 -25.37759780883789 105.14159393310547
-48.71520233154297 -34.82279586791992 -98.06278991699219
87.54660034179688 8.149799346923828 113.09760284423828
43.13580322265625 27.11159896850586 116.40238952636719
-97.76699829101562 -103.93798828125 -72.2261962890625
-93.19740295410156 -55.253395080566406 -98.8991928100586
-118.25879669189453 -52.529991149902344 85.42499542236328
10.495800971984863 -44.26799774169922 -86.15939331054688
36.54659652709961 25.805999755859375 117.4020004272461
-88.39319610595703 -55.60020446777344 -99.61319732666016
10.424399375915527 10.618199348449707 -90.66780090332031
126.84719848632812 8.792401313781738 -75.08219909667969
12.64799976348877 -44.06399917602539 -85.62899780273438
-118.31998443603516 -53.83559799194336 85.08839416503906
18.72719955444336 12.719399452209473 -88.06681060791016
29.630996704101562 23.735397338867188 -82.72200012207031
-95.3699951171875 -101.3573989868164 -74.33760070800781
-1.3259999752044678 -16.41179847717285 -94.48259735107422
53.07059860229492 -9.455400466918945 -81.51839447021484
-40.94279861450195 -66.47339630126953 -89.23979187011719
26.652597427368164 28.80480194091797 -81.86520385742188
63.413394927978516 7.864199638366699 -78.73379516601562
122.8386001586914 78.98880004882812 20.726398468017578
46.43040084838867 44.06399917602539 -70.65540313720703
-118.29960632324219 -56.28359603881836 84.04798889160156
148.16519165039062 9.832798957824707 -73.1441879272461
-97.84860229492188 -107.12039184570312 -70.71660614013672
-107.48760223388672 -66.90179443359375 -96.0635986328125
-105.1823959350586 -66.75899505615234 -95.74739074707031
-63.576602935791016 -99.90898895263672 -77.70360565185547
-93.1055908203125 -53.90699768066406 -99.6233901977539
-95.51280212402344 -98.3790054321289 -76.43880462646484
28.753799438476562 29.824798583984375 -81.00839233398438
-75.57179260253906 -81.1613998413086 -85.4555892944336
89.01538848876953 -0.9282000064849854 -82.44660186767578
-95.71681213378906 -95.47200012207031 -78.43799591064453
46.18559646606445 45.1349983215332 -70.14539337158203
55.569602966308594 45.14519500732422 -67.79940032958984
55.32479476928711 46.20600128173828 -67.2791976928711
117.65699768066406 20.267396926879883 -77.06098937988281
-75.42900085449219 -77.38739013671875 -87.87299346923828
-38.555999755859375 -74.55180358886719 -86.51640319824219
-117.99360656738281 -60.638999938964844 80.89619445800781
-70.4513931274414 -101.34719848632812 -76.53059387207031
44.45159912109375 33.11940002441406 -76.13280487060547
58.28280258178711 -4.906199932098389 -80.5595932006836
42.12600326538086 33.30299758911133 -76.58160400390625
-98.40959167480469 -87.31200408935547 -82.21198272705078
-29.64120101928711 -70.08419799804688 -86.09820556640625
62.974796295166016 -5.987399578094482 -80.59020233154297
-73.10340881347656 -74.72520446777344 -88.89299774169922
-140.86199951171875 -117.0551986694336 -46.96080017089844
57.17099380493164 29.845203399658203 -74.33760070800781
-104.33580017089844 -49.02119827270508 -103.0404052734375
13.178399085998535 -34.45560073852539 -87.58739471435547
-73.29719543457031 -28.111196517944336 -104.58060455322266
56.732398986816406 30.956998825073242 -74.02140045166016
-52.72380065917969 -6.895200729370117 118.72799682617188
105.86579132080078 -8.017199516296387 -82.93619537353516
103.67279815673828 -7.89479923248291 -84.20098876953125
-130.97821044921875 -91.59599304199219 61.78139877319336
124.42980194091797 78.91739654541016 13.790401458740234
-118.11599731445312 -64.26000213623047 79.38660430908203
-86.23080444335938 -103.39739990234375 -73.3991928100586
36.60780334472656 24.2760009765625 117.32039642333984
58.33379364013672 50.1431999206543 109.26239013671875
-70.41059875488281 -58.83359909057617 -95.24758911132812
-88.0770034790039 -40.33080291748047 -105.16199493408203
-133.29359436035156 -86.91419219970703 64.7904052734375
-127.45918273925781 -75.1535873413086 72.2466049194336
-34.55759811401367 -30.457197189331055 -97.62419891357422
-133.29359436035156 -88.10759735107422 64.03559875488281
66.35099792480469 49.296600341796875 -63.60719680786133
-72.51179504394531 -56.099998474121094 -96.51239013671875
-88.50540924072266 -103.48919677734375 -73.74600219726562
-70.3290023803711 -57.507598876953125 -95.85961151123047
-87.34259796142578 -28.77419662475586 -107.17140197753906
-61.628395080566406 -65.10660552978516 -91.16759490966797
-74.86798858642578 -58.904991149902344 -95.78820037841797
-36.3120002746582 -74.42939758300781 -86.13899993896484
66.53459167480469 78.66239166259766 95.67599487304688
-87.37319946289062 -30.110397338867188 -107.26319885253906
-25.010400772094727 -26.305801391601562 -97.43040466308594
-133.3037872314453 -90.61679077148438 62.6381950378418
-16.554597854614258 47.21579360961914 116.6880111694336
-84.98639678955078 -27.33599853515625 -106.4063949584961
-70.24739837646484 -53.264400482177734 -97.19580078125
-56.242801666259766 -41.911800384521484 -97.80780029296875
101.13299560546875 0.3365999758243561 -83.150390625
-40.75919723510742 -75.61260223388672 -85.52698516845703
-72.45059967041016 -48.990596771240234 -98.8073959350586
-109.5989990234375 -111.3125991821289 -66.289794921875
-118.40160369873047 -71.8283920288086 75.93900299072266
-134.15040588378906 -93.97260284423828 58.86419677734375
71.94059753417969 13.678200721740723 -77.28539276123047
2.1113998889923096 10.536600112915039 124.64399719238281
2.254199981689453 9.026999473571777 124.8479995727539
87.8832015991211 -3.2129998207092285 -82.4364013671875
2.3969998359680176 7.496999740600586 125.06219482421875
-29.590200424194336 -68.79899597167969 -86.68980407714844
52.5911979675293 -27.458396911621094 113.72999572753906
47.888999938964844 -28.87619972229004 113.53619384765625
3.1619999408721924 -1.499400019645691 125.58240509033203
8.109000205993652 47.644195556640625 114.23999786376953
3.110999584197998 -2.988600015640259 125.4906005859375
-88.39319610595703 -104.7743911743164 -72.39960479736328
-43.095001220703125 -59.66999816894531 -91.57559967041016
-129.1523895263672 -55.87560272216797 80.83499908447266
3.0293996334075928 -6.007800102233887 125.22540283203125
3.009000301361084 -7.527599334716797 125.08260345458984
96.30840301513672 -5.875199794769287 115.81079864501953
-45.44099807739258 -61.036800384521484 -91.34101104736328
-155.90699768066406 -98.6441879272461 50.224796295166016
-43.0745964050293 -58.292999267578125 -91.96319580078125
58.47659683227539 6.986999034881592 -79.81499481201172
2.8559999465942383 -15.095999717712402 123.71578979492188
2.784599781036377 -21.083396911621094 122.25719451904297
-1.2036000490188599 -31.17119598388672 -91.31039428710938
-124.7459945678711 -44.55359649658203 86.31239318847656
-48.694801330566406 -34.720802307128906 113.23019409179688
-73.77660369873047 -31.956602096557617 -103.41778564453125
88.47480010986328 2.560199737548828 113.20980072021484
-122.58358764648438 -44.64539337158203 86.99580383300781
88.556396484375 0.2141999900341034 -82.09979248046875
89.8313980102539 19.16579818725586 -81.49799346923828
2.713200092315674 -28.355998992919922 120.04378509521484
61.791603088378906 5.7017998695373535 -79.41719818115234
2.713200092315674 -29.804397583007812 119.53379821777344
64.34160614013672 80.36579895019531 95.38019561767578
-108.14039611816406 -26.7239990234375 -111.39421081542969
10.750800132751465 -60.15959167480469 -83.73179626464844
47.89919662475586 -30.283798217773438 113.14860534667969
60.82260513305664 51.76499938964844 -62.791202545166016
-122.65499877929688 -47.30760192871094 86.23080444335938
79.41719818115234 -19.64520263671875 -80.41681671142578
-124.85820770263672 -45.9407958984375 86.0573959350586
-122.59380340576172 -48.54179382324219 85.59839630126953
-51.93839645385742 -21.470998764038086 -101.8367919921875
-61.78139877319336 -80.35559844970703 -83.64000701904297
-27.366601943969727 -69.98219299316406 -85.62899780273438
-124.65420532226562 -48.35820388793945 84.59879302978516
-140.22959899902344 -114.13800048828125 -53.78459167480469
-54.15180206298828 -20.216400146484375 -102.34679412841797
-49.01100158691406 30.895801544189453 117.13681030273438
78.55020141601562 -17.105398178100586 -80.95738983154297
-49.5923957824707 -21.420000076293945 -101.7449951171875
-49.71480178833008 -22.73579978942871 -101.37779998779297
91.10639953613281 22.86840057373047 -81.03900146484375
-48.63359832763672 26.397602081298828 118.06501007080078
-139.9541778564453 -113.10780334472656 -54.875999450683594
-133.4261932373047 -56.558998107910156 78.45840454101562
-47.59320068359375 15.901799201965332 119.63580322265625
-74.59259796142578 -1.36680006980896 113.88299560546875
36.19980239868164 -50.10240173339844 -80.41681671142578
-74.7863998413086 0.09179999679327011 113.95439147949219
-42.21780014038086 29.671798706054688 118.22821044921875
-72.38939666748047 -2.784599781036377 114.2807846069336
-74.66400146484375 -2.784599781036377 113.83200073242188
-72.55259704589844 0.17340001463890076 114.51539611816406
-76.74480438232422 -1.36680006980896 113.30160522460938
-72.38939666748047 -1.3259999752044678 114.4031982421875
-47.16480255126953 11.311800003051758 120.11519622802734
-28.345802307128906 -16.952402114868164 -100.05179595947266
-46.766998291015625 6.752401351928711 120.46198272705078
-31.466999053955078 10.189799308776855 123.26698303222656
-46.61399459838867 5.222399711608887 120.55380249023438
92.79959106445312 -13.484399795532227 -80.794189453125
-101.80619812011719 -43.431602478027344 -104.9273910522461
-133.181396484375 -97.96080017089844 55.202392578125
-101.75519561767578 -42.18719482421875 -105.60060119628906
-46.246803283691406 -12.80099868774414 119.33999633789062
-52.509605407714844 -70.44119262695312 -88.556396484375
39.025203704833984 -41.80979537963867 -81.38580322265625
-46.25699996948242 -14.300399780273438 119.09520721435547
-46.26719665527344 -18.798599243164062 118.24858856201172
-158.82418823242188 -115.7904052734375 30.467397689819336
-46.3589973449707 -23.174400329589844 117.21839141845703
-57.08940124511719 -70.48200225830078 -89.09700775146484
-48.58259963989258 -23.143800735473633 116.74919891357422
-50.81639862060547 -23.113201141357422 116.2697982788086
39.81060028076172 -5.84459924697876 -84.89460754394531
-48.6234016418457 -24.592201232910156 116.3718032836914
-50.84700012207031 -24.561599731445312 115.88219451904297
-37.03620147705078 4.42680025100708 -102.17339324951172
21.307798385620117 6.395399570465088 -88.50540924072266
-48.6234016418457 -26.040597915649414 115.99439239501953
-48.613197326660156 -27.478797912597656 115.5864028930664
-50.84700012207031 -26.010000228881836 115.49459075927734
-99.17460632324219 -31.701601028442383 -108.7218017578125
43.57440185546875 21.226200103759766 117.42240905761719
-166.168212890625 -113.71980285644531 22.776599884033203
52.621803283691406 -30.304203033447266 112.93439483642578
12.066600799560547 -1.5504000186920166 124.25639343261719
-48.602996826171875 -28.91699981689453 115.15799713134766
49.92900085449219 -14.44320011138916 116.830810546875
-50.8368034362793 -27.458396911621094 115.10699462890625
-122.6447982788086 -54.988197326660156 83.32379913330078
-126.66358947753906 -53.36640167236328 81.68160247802734
-21.664796829223633 -12.474599838256836 123.80758666992188
-133.5383758544922 -98.84820556640625 54.192596435546875
-23.91899871826172 -11.026198387145996 123.7362060546875
-100.13339233398438 -106.86539459228516 -70.64520263671875
-21.74639892578125 -18.21719741821289 -98.59320068359375
-23.93939971923828 -12.52560043334961 123.49140167236328
17.809200286865234 35.40420150756836 117.12660217285156
-19.431001663208008 -12.443998336791992 124.0625991821289
92.84040832519531 -17.452199935913086 -79.92719268798828
57.77280044555664 -22.7969970703125 -79.88639831542969
-134.48699951171875 9.832798957824707 -119.36038970947266
-78.98880004882812 -6.976799011230469 112.12860107421875
-83.85419464111328 -54.9066047668457 -98.17499542236328
115.69860076904297 19.28820037841797 -77.81578826904297
-10.6589994430542 -28.712995529174805 120.34980010986328
-8.986198425292969 -61.5059928894043 -85.14958953857422
119.3501968383789 13.025399208068848 -77.06098937988281
-153.58140563964844 -91.67759704589844 55.77360534667969
120.339599609375 20.124597549438477 -76.591796875
-142.40219116210938 -7.925400257110596 -119.1156005859375
-55.284000396728516 -4.090199947357178 -105.1211929321289
100.70460510253906 -5.9670000076293945 116.53498840332031
-93.94200134277344 -86.38380432128906 -83.33399963378906
-107.71198272705078 -18.502798080444336 -113.6177978515625
93.60540771484375 -16.105798721313477 -80.04960632324219
-5.33459997177124 45.23699951171875 115.6067886352539
-7.527599334716797 45.30839538574219 115.718994140625
-3.2129998207092285 46.62419509887695 115.07640838623047
-3.1314001083374023 45.16559600830078 115.50479888916016
-5.46720027923584 46.74660110473633 115.16820526123047
-7.384799957275391 43.86000061035156 116.32080078125
-5.191800117492676 43.77839660644531 116.14740753173828
134.98678588867188 79.31520080566406 0.9894000887870789
127.55098724365234 7.456199645996094 -74.99039459228516
43.72740173339844 19.76759910583496 117.58560180664062
-37.8317985534668 -37.770599365234375 114.26040649414062
-83.92560577392578 -56.273399353027344 -97.5221939086914
92.0855941772461 -18.75779914855957 -79.84559631347656
75.70439910888672 -17.054399490356445 113.44438934326172
-86.1491928100586 -55.17180252075195 -98.7461929321289
63.229793548583984 51.67319869995117 -62.740203857421875
90.44340515136719 -17.41139793395996 -80.18219757080078
-41.96280288696289 26.652597427368164 118.91160583496094
-111.76140594482422 -7.282800197601318 -114.83160400390625
90.71880340576172 24.061798095703125 -80.7738037109375
115.00501251220703 20.45100212097168 -77.79539489746094
-64.17839050292969 -77.92799377441406 -85.44539642333984
-37.382999420166016 -6.711600303649902 121.97160339355469
119.60519409179688 21.27720069885254 -76.51020050048828
29.477998733520508 -25.183799743652344 117.79979705810547
133.73219299316406 79.3458023071289 0.06119999662041664
65.79000091552734 20.552995681762695 114.04619598388672
3.335400104522705 22.643999099731445 122.01239013671875
-18.21719741821289 -4.590000152587891 -99.0929946899414
-20.522401809692383 -4.640999794006348 -99.57240295410156
-16.003801345825195 -5.885400295257568 -98.62379455566406
32.51759719848633 57.95640182495117 106.92660522460938
39.18839645385742 -40.48379898071289 -81.63059997558594
-18.13559913635254 -3.243600368499756 -99.05219268798828
-20.440799713134766 -3.294599771499634 -99.54179382324219
-158.73239135742188 -116.11679077148438 29.212799072265625
-15.932397842407227 -4.539000034332275 -98.6033935546875
-50.55119705200195 -9.843000411987305 118.92179870605469
-18.308998107910156 -5.936399936676025 -99.11339569091797
139.1994171142578 5.497799873352051 -73.40939331054688
-30.406200408935547 23.94959831237793 120.97200012207031
-72.69539642333984 -60.312599182128906 -95.13539123535156
-153.0102081298828 -81.8855972290039 61.659000396728516
19.604400634765625 4.069799900054932 -89.2704086303711
-153.26519775390625 -82.86479187011719 60.97560501098633
39.555599212646484 34.700401306152344 -76.60199737548828
94.37039184570312 -14.789998054504395 -80.29440307617188
41.860801696777344 34.50659942626953 -76.15320587158203
54.97800064086914 -1.3361998796463013 -80.95738983154297
78.0197982788086 -23.13359832763672 -79.14179229736328
-70.87979888916016 -77.29560089111328 -87.57719421386719
85.9961929321289 23.613000869750977 -79.3458023071289
37.260597229003906 34.924800872802734 -77.11199951171875
113.84220886230469 -23.643600463867188 121.2882080078125
39.80039978027344 33.486602783203125 -77.04059600830078
41.61600112915039 35.720394134521484 -75.70439910888672
79.35599517822266 15.412199020385742 -78.55020141601562
-20.930400848388672 45.69599914550781 117.60599517822266
116.13719177246094 22.5216007232666 -76.70399475097656
85.56780242919922 24.826799392700195 -79.20299530029297
-42.58499526977539 -21.195600509643555 -101.14320373535156
118.85040283203125 22.378801345825195 -76.2654037475586
114.3521957397461 21.623998641967773 -77.85660552978516
-27.468597412109375 1.937999963760376 -100.68421173095703
-128.91778564453125 -42.93179702758789 85.03739166259766
-41.830196380615234 25.153200149536133 119.22779846191406
78.48900604248047 -21.960599899291992 -79.5293960571289
53.611202239990234 54.24360275268555 106.88580322265625
58.00739288330078 44.84939956665039 -67.31999206542969
-7.027799129486084 -7.0889997482299805 -96.60419464111328
-66.25920867919922 -70.35960388183594 -89.40299987792969
-4.977599620819092 6.49739933013916 -95.25779724121094
-59.119197845458984 -55.74300003051758 -94.21739959716797
91.77960205078125 20.62439727783203 -82.11000061035156
-52.4076042175293 -77.0813980102539 -86.41439819335938
89.26019287109375 96.77759552001953 33.68040084838867
-120.431396484375 -46.03260040283203 87.20999908447266
-15.289800643920898 5.915999412536621 125.5619888305664
-54.77399826049805 -76.94879150390625 -86.30219268798828
-52.448394775390625 -75.68399810791016 -86.65918731689453
136.02719116210938 19.400400161743164 -71.79779815673828
-50.10240173339844 -75.64320373535156 -86.33280181884766
-45.1349983215332 -92.62620544433594 -79.74359893798828
45.9407958984375 19.70639991760254 117.39178466796875
83.93579864501953 22.225799560546875 -79.14179229736328
36.55679702758789 72.23639678955078 100.07219696044922
36.51599884033203 70.9511947631836 101.04119873046875
138.09779357910156 20.604000091552734 -71.21640014648438
36.413997650146484 69.56399536132812 101.79598999023438
63.178802490234375 43.452003479003906 -67.2179946899414
75.74519348144531 -24.32699966430664 111.83280181884766
121.27799987792969 26.836200714111328 -73.44000244140625
36.679203033447266 65.0250015258789 103.28519439697266
36.79140090942383 63.5153923034668 103.79521179199219
-119.97240447998047 -113.60760498046875 -61.006195068359375
36.862796783447266 62.01599884033203 104.35619354248047
-104.75399780273438 -57.27299880981445 -99.368408203125
64.71900177001953 62.90339279174805 103.28519439697266
-50.520599365234375 -2.6213998794555664 -104.6520004272461
22.552200317382812 -16.442398071289062 -88.8114013671875
-52.86660385131836 -2.6826000213623047 -104.90699768066406
-142.606201171875 -119.47258758544922 -39.44340133666992
-50.58179473876953 -3.9881997108459473 -104.69280242919922
-44.533203125 -41.972999572753906 111.43498229980469
18.706798553466797 6.4362006187438965 -89.18880462646484
37.01580047607422 19.92059898376465 118.10578918457031
-48.174598693847656 -2.5704004764556885 -104.36640930175781
-120.5027847290039 -65.58599853515625 78.72359466552734
-50.45940017700195 -1.264799952507019 -104.60101318359375
57.74219512939453 45.92039489746094 -66.82019805908203
-42.350399017333984 -41.98320388793945 111.7716064453125
-42.89099884033203 138.31198120117188 15.544800758361816
-46.644596099853516 -40.463401794433594 111.48600006103516
55.865394592285156 -20.552995681762695 -80.48819732666016
21.76679801940918 5.212199687957764 -88.556396484375
-43.03379821777344 -78.1218032836914 -84.28260040283203
-141.60659790039062 -92.77920532226562 57.650394439697266
-35.985599517822266 -23.755800247192383 -99.74580383300781
-27.182998657226562 -0.754800021648407 -100.83719635009766
-31.619998931884766 -25.05120086669922 -98.79719543457031
60.52680206298828 21.878999710083008 -76.22460174560547
67.23839569091797 46.38960266113281 -65.42279815673828
-156.52920532226562 -117.82019805908203 27.458396911621094
48.31739807128906 18.227397918701172 117.61619567871094
-33.52739334106445 -22.399198532104492 -99.76619720458984
-35.802001953125 -22.419601440429688 -100.0823974609375
106.21260070800781 0.2550000250339508 -82.09979248046875
100.59239196777344 -10.567200660705566 116.93280029296875
94.18679809570312 15.575401306152344 -83.03819274902344
-24.949199676513672 -2.0400002002716064 -100.45979309082031
26.79539680480957 39.18839645385742 114.60719299316406
24.479999542236328 39.32099914550781 114.90299987792969
97.71599578857422 87.72000122070312 61.51620101928711
-106.20240783691406 -41.136600494384766 -106.3656005859375
44.155799865722656 15.442798614501953 118.34040832519531
-54.406803131103516 -97.9301986694336 -78.02999877929688
29.049598693847656 40.56540298461914 114.10740661621094
-27.32579803466797 0.5915999412536621 -100.7760009765625
82.96681213378906 1.2036000490188599 -80.54940032958984
91.5551986694336 5.140800952911377 -82.35478973388672
-33.19080352783203 -19.716602325439453 -100.36799621582031
-74.93939208984375 -60.27180099487305 -95.23739624023438
-35.33279800415039 -18.411001205444336 -100.94940185546875
-30.916200637817383 -19.696199417114258 -100.03140258789062
-33.0275993347168 -18.370197296142578 -100.60260009765625
114.25019836425781 -1.213800072669983 -79.09080505371094
85.35359954833984 -3.2639997005462646 -81.54899597167969
-32.90520477294922 -17.033998489379883 -100.8167953491211
-35.21039962768555 -17.084999084472656 -101.17379760742188
-30.763200759887695 -18.339601516723633 -100.24559783935547
-21.807601928710938 30.2123966217041 120.02339172363281
24.235197067260742 13.045801162719727 121.32899475097656
-113.70958709716797 -64.66799926757812 80.83499908447266
-19.573801040649414 30.23280143737793 120.09480285644531
-41.564998626708984 22.13399887084961 119.82960510253906
-23.929203033447266 28.63140106201172 120.339599609375
-25.020599365234375 0.6426001191139221 -100.32719421386719
30.038999557495117 -52.33619689941406 -82.6199951171875
