408.09271240234375 234.0792236328125 68.4549560546875
659.0069580078125 -941.241455078125 -1.5419921875
-543.761474609375 234.0692138671875 165.2762451171875
-160.487060546875 -362.61761474609375 55.309326171875
273.3626708984375 -727.770751953125 -20.125732421875
1231.08251953125 -973.0171508789062 -44.52197265625
-247.484375 556.420654296875 186.0633544921875
-69.68408203125 -213.4552001953125 127.781982421875
-299.021728515625 -464.77215576171875 -42.4176025390625
155.8232421875 -268.4212646484375 0.276123046875
340.9613037109375 339.435791015625 75.370361328125
580.6895751953125 -495.18231201171875 -26.5140380859375
-205.249267578125 366.9993896484375 196.4139404296875
344.96539306640625 349.537109375 76.9979248046875
-1061.529052734375 704.2564697265625 11.57275390625
210.6275634765625 49.7930908203125 160.3636474609375
39.8206787109375 252.2911376953125 193.7518310546875
488.7576904296875 -952.23095703125 16.509765625
60.4671630859375 -460.78509521484375 -4.0313720703125
79.185546875 229.81787109375 175.3828125
460.38079833984375 -1739.337890625 230.0272216796875
39.839111328125 88.3404541015625 262.9443359375
44.81201171875 223.4608154296875 195.8260498046875
-2507.382568359375 575.7322998046875 40.3074951171875
-499.4541015625 -646.4561157226562 -267.4583740234375
748.6505126953125 330.8441162109375 -137.3145751953125
-1309.017822265625 322.7271728515625 -64.5748291015625
524.496337890625 335.695068359375 -4.8502197265625
638.853271484375 -627.586181640625 -43.1834716796875
-375.90869140625 -268.1295166015625 24.2003173828125
156.287353515625 -268.7252197265625 -0.5308837890625
-1284.241455078125 263.6138916015625 -61.2564697265625
-353.4794921875 -14.3096923828125 102.1051025390625
401.74407958984375 1246.1710205078125 -192.65283203125
550.8682861328125 -796.8228759765625 -29.9598388671875
343.50994873046875 -969.7919311523438 26.096435546875
-270.16552734375 -915.1953735351562 -345.8472900390625
543.4404296875 -782.041259765625 -27.7742919921875
660.7149658203125 48.270263671875 34.0257568359375
1741.2596435546875 707.6839599609375 -283.576416015625
571.3326416015625 -512.021484375 -23.2945556640625
505.1248779296875 -1486.1500244140625 196.3057861328125
94.884765625 -539.8681640625 12.1116943359375
356.499755859375 157.2161865234375 143.2479248046875
-514.4248046875 -895.0557861328125 -509.1048583984375
-1609.54052734375 -492.05889892578125 -135.350341796875
403.9591064453125 -1573.7000732421875 212.2069091796875
-11.483642578125 -118.0631103515625 155.7911376953125
67.1959228515625 -492.30712890625 -1.2432861328125
13.554931640625 -105.963134765625 172.63720703125
-564.40673828125 -919.2559204101562 -543.029296875
657.910888671875 -939.688232421875 -0.5400390625
-22.277587890625 -105.612060546875 168.7330322265625
997.2352294921875 338.0042724609375 -252.0260009765625
1129.0072021484375 -944.1141967773438 -54.0269775390625
301.4993896484375 334.5047607421875 86.0589599609375
-833.758544921875 -956.823486328125 -572.9404296875
1928.61767578125 -1018.9967651367188 -151.10791015625
383.56097412109375 16.255126953125 58.6551513671875
690.1438598632812 -929.1578369140625 0.401611328125
-75.7392578125 -1080.1749267578125 -105.4749755859375
473.1383056640625 -563.021240234375 -1.4693603515625
502.3355712890625 -1487.0938720703125 197.0205078125
133.6422119140625 -1214.398193359375 74.5816650390625
997.8084716796875 -539.1117553710938 -125.4849853515625
560.9986572265625 -725.7413330078125 -40.4327392578125
-47.819580078125 -171.8233642578125 120.4521484375
414.016845703125 -1552.8817138671875 210.6787109375
593.1580200195312 1880.9005126953125 -202.6455078125
-392.6402587890625 1397.4232177734375 178.740966796875
477.0635986328125 -789.15234375 -22.9569091796875
270.991455078125 -1242.000244140625 117.4781494140625
511.66998291015625 361.8426513671875 -27.3096923828125
456.93634033203125 -1194.3319091796875 82.6395263671875
104.723388671875 -655.72265625 -2.9583740234375
-224.4906005859375 325.3604736328125 197.3336181640625
925.3094482421875 313.863037109375 -232.3267822265625
537.189208984375 -805.3765258789062 -32.8370361328125
269.056640625 -1225.1400146484375 119.6651611328125
576.1737670898438 703.1300048828125 -346.3126220703125
1584.903076171875 -618.7018432617188 -290.2845458984375
18.356689453125 248.1812744140625 219.4754638671875
761.2271728515625 463.6326904296875 -201.3184814453125
-1488.738525390625 250.2066650390625 -93.5882568359375
305.2353515625 -629.4898681640625 -20.3450927734375
1607.81103515625 -677.8102416992188 -282.400390625
36.1241455078125 19.0479736328125 255.78668212890625
1541.805419921875 -566.7057495117188 -294.7926025390625
395.761962890625 -785.2186279296875 -21.728759765625
1584.196044921875 -685.9519653320312 -277.31494140625
215.3094482421875 -33.501708984375 147.8062744140625
528.14306640625 -174.7052001953125 -54.4825439453125
-761.028076171875 481.2183837890625 64.7572021484375
-191.5467529296875 -190.582763671875 127.6148681640625
1029.5174560546875 -598.2437133789062 -139.1080322265625
96.959716796875 -272.0548095703125 11.4327392578125
-784.18798828125 534.9920654296875 63.259521484375
451.410888671875 -964.9073486328125 18.4921875
-236.733154296875 354.916748046875 195.3184814453125
229.9144287109375 -674.4674072265625 -15.399658203125
-84.095947265625 -70.988525390625 191.337158203125
347.953857421875 -718.1749267578125 -28.939697265625
252.8250732421875 -884.6821899414062 19.1239013671875
-711.839111328125 119.8267822265625 61.7091064453125
272.298828125 91.417236328125 146.8428955078125
1094.665771484375 -790.3211059570312 -90.75146484375
-371.995849609375 -275.2684326171875 22.3487548828125
-827.423583984375 -814.4124145507812 -560.0853271484375
-336.3765869140625 75.516845703125 194.1458740234375
539.1497802734375 1138.5848388671875 -361.9412841796875
652.578125 -1483.1136474609375 189.902099609375
139.912353515625 -620.7740478515625 -5.84814453125
613.8475341796875 -529.491943359375 -17.2235107421875
932.6532592773438 -1819.001708984375 232.732421875
-184.146484375 236.6817626953125 194.541015625
383.99847412109375 257.9244384765625 58.5689697265625
-804.730712890625 -647.7108764648438 -431.1373291015625
-116.7484130859375 573.2950439453125 198.3341064453125
598.7889404296875 -535.5350952148438 -19.4410400390625
-495.2950439453125 -377.4638671875 -112.6097412109375
-170.750732421875 278.33642578125 207.906494140625
965.7371826171875 -551.1928100585938 -125.1448974609375
-801.8408203125 602.4154052734375 55.9617919921875
383.33416748046875 -1511.985107421875 215.500244140625
-2026.937744140625 776.7799072265625 106.481201171875
376.75396728515625 -1514.580078125 214.82373046875
657.3892211914062 -532.2033081054688 -29.6270751953125
321.74139404296875 145.142333984375 150.15380859375
324.92425537109375 -673.827880859375 -20.5606689453125
1100.7850341796875 1477.1514892578125 -278.3765869140625
692.3917236328125 437.027099609375 -160.4530029296875
1089.86083984375 -945.413330078125 -48.0390625
-12.133544921875 -484.857177734375 52.541748046875
320.94122314453125 -667.2100830078125 -17.9736328125
1676.474853515625 -517.9290771484375 -308.7423095703125
-557.716064453125 -596.0836181640625 -256.8529052734375
312.0028076171875 -685.7850341796875 -21.6109619140625
303.685302734375 -342.169921875 -8.140380859375
228.9654541015625 286.4549560546875 133.1055908203125
-1483.659423828125 1113.7110595703125 121.4146728515625
-833.04541015625 -888.0592651367188 -576.2159423828125
-84.7864990234375 830.4620361328125 221.1475830078125
413.60125732421875 -1466.90478515625 209.89697265625
487.34228515625 -785.379638671875 -23.7025146484375
1086.761474609375 -590.7338256835938 -141.335205078125
393.01904296875 -821.6279296875 -27.3031005859375
-432.20263671875 -85.799072265625 55.9156494140625
-5.244384765625 -34.69873046875 232.7454833984375
-771.150146484375 24.4376220703125 36.4139404296875
462.583251953125 102.933837890625 90.8970947265625
-361.477783203125 -91.177978515625 71.08349609375
79.232177734375 -278.0908203125 15.7371826171875
331.44427490234375 26.9921875 71.8187255859375
1061.082763671875 -802.3980712890625 -86.7174072265625
243.034423828125 281.201904296875 104.3660888671875
333.27020263671875 33.8980712890625 72.558349609375
-418.451416015625 -115.3594970703125 54.2437744140625
-1515.861572265625 308.2781982421875 -97.893798828125
1315.9097900390625 -960.4359130859375 -59.0272216796875
-86.54541015625 -515.1453857421875 39.3758544921875
184.8609619140625 -959.202880859375 38.0242919921875
1002.5914306640625 -582.4554443359375 -135.903076171875
-826.61572265625 1074.4144287109375 45.3055419921875
301.6033935546875 -9.3988037109375 92.9952392578125
-745.642822265625 -764.4918823242188 -540.5850830078125
-89.134033203125 -510.4263916015625 40.605224609375
393.060302734375 -1508.540283203125 213.9921875
1107.9168701171875 -1687.422119140625 208.77294921875
-319.109130859375 1848.8446044921875 240.12872314453125
-855.324462890625 717.6590576171875 39.73193359375
-1391.881103515625 642.5184326171875 -25.338134765625
966.469970703125 -586.8018798828125 -134.020263671875
-373.352294921875 -379.8201904296875 -43.6361083984375
455.6954345703125 -963.3299560546875 18.212158203125
1286.0772705078125 -970.934814453125 -53.9722900390625
300.48193359375 -739.7340087890625 -26.2662353515625
199.926025390625 -953.15966796875 40.2264404296875
371.80670166015625 -1499.8050537109375 210.947265625
923.7489013671875 -619.6996459960938 -130.70556640625
9.8685302734375 1962.7362060546875 41.6082763671875
890.60986328125 -560.563720703125 -113.5882568359375
252.2193603515625 -288.9334716796875 -30.9959716796875
-240.32861328125 212.498291015625 175.7677001953125
-674.03125 -371.5316162109375 -304.6973876953125
958.0654296875 -607.6246337890625 -136.5323486328125
724.7930908203125 389.2904052734375 -147.1414794921875
166.6263427734375 428.6260986328125 131.8541259765625
494.4725341796875 -800.1605224609375 -25.160400390625
-323.169921875 117.1722412109375 207.9730224609375
20.62890625 -260.0875244140625 48.4508056640625
-31.438720703125 -133.8658447265625 130.5128173828125
-184.701904296875 64.731689453125 199.4935302734375
-15.958251953125 -444.597900390625 63.951416015625
507.03466796875 175.9573974609375 119.4486083984375
867.0175170898438 -445.001220703125 -89.66552734375
474.11865234375 163.8785400390625 121.8529052734375
-155.40234375 76.8201904296875 205.927001953125
1333.90966796875 594.0213623046875 -312.1356201171875
503.2164306640625 -726.861083984375 -34.640625
-743.37646484375 904.2335205078125 79.5550537109375
-365.3636474609375 -453.4022216796875 -74.78857421875
-307.08251953125 87.6053466796875 200.5928955078125
1375.927490234375 -145.765625 -290.526123046875
475.1806640625 -1191.208251953125 80.2210693359375
-387.4224853515625 -471.51287841796875 -92.4237060546875
339.85101318359375 1031.2225341796875 -305.3701171875
-376.92822265625 -429.8504638671875 -71.9677734375
999.5088500976562 740.9483642578125 -328.6378173828125
-759.043212890625 -748.5709838867188 -525.02001953125
-354.2470703125 -455.50164794921875 -70.2371826171875
-1074.066650390625 -268.37255859375 -0.0811767578125
451.2869873046875 -662.5614013671875 -33.64404296875
-1516.34521484375 316.8265380859375 -98.1011962890625
520.0782470703125 394.677734375 -58.4075927734375
318.3388671875 506.4111328125 41.3126220703125
36.352783203125 1025.8184814453125 294.9910888671875
1008.2639770507812 -570.9228515625 -133.594482421875
332.0269775390625 510.9212646484375 37.0238037109375
56.6832275390625 -10.5306396484375 237.4788818359375
35.6885986328125 1667.0465087890625 -16.5062255859375
106.9547119140625 -140.9263916015625 164.3265380859375
-156.1602783203125 -213.8095703125 114.0650634765625
323.6671142578125 476.8731689453125 60.2242431640625
91.373779296875 -291.8876953125 8.4306640625
308.528564453125 535.9608154296875 33.3538818359375
654.6690673828125 -1092.336181640625 35.7041015625
377.0247802734375 -975.1646728515625 22.5660400390625
1697.61181640625 -712.763916015625 -281.9166259765625
312.5767822265625 473.204833984375 63.6082763671875
1100.292724609375 -930.7855224609375 -43.7862548828125
544.7981567382812 -1792.0150146484375 240.54541015625
1740.080810546875 -629.49658203125 -293.4967041015625
916.3040771484375 -426.8826904296875 -93.0576171875
-35.8779296875 -201.3787841796875 123.202392578125
307.140380859375 -715.4708251953125 -23.2030029296875
-232.433349609375 -172.882080078125 117.3104248046875
307.52978515625 -716.1619873046875 -23.407958984375
332.1461181640625 -724.2161865234375 -29.3270263671875
307.69970703125 -715.280517578125 -23.3394775390625
-206.150146484375 366.668701171875 196.4786376953125
1112.311279296875 -950.1529541015625 -52.2431640625
-231.744140625 11.0001220703125 190.3177490234375
700.9107666015625 -369.4337158203125 -87.076904296875
298.533935546875 -700.68603515625 -18.137451171875
948.6359252929688 -556.1790161132812 -123.5087890625
228.421875 -976.676025390625 41.5394287109375
-293.5 160.9493408203125 195.4620361328125
-56.20556640625 255.4835205078125 225.95526123046875
-273.052978515625 200.4190673828125 177.7037353515625
305.3369140625 -334.173583984375 -7.4732666015625
58.630615234375 -361.4168701171875 -26.1201171875
64.16748046875 -376.193359375 -23.6844482421875
44.111328125 92.4627685546875 264.68804931640625
-285.611083984375 129.9403076171875 198.7242431640625
132.832275390625 -334.25372314453125 -9.059814453125
1399.8614501953125 -548.780029296875 -277.9581298828125
271.35888671875 -1124.40869140625 96.275390625
426.8275146484375 -687.96875 -26.601318359375
-200.049560546875 438.1995849609375 197.8758544921875
-20.594970703125 -428.73968505859375 66.26904296875
487.71563720703125 -1217.854248046875 78.3729248046875
306.9495849609375 -139.6741943359375 129.627197265625
434.57281494140625 -1220.317626953125 80.886962890625
386.34576416015625 -756.4796142578125 -35.8433837890625
1036.6019287109375 -571.9827880859375 -139.2481689453125
1036.8096923828125 -560.9928588867188 -139.1751708984375
-466.894287109375 1890.7427978515625 191.613037109375
60.92626953125 25.5244140625 237.13995361328125
146.8353271484375 -164.473388671875 137.818603515625
445.4935302734375 95.0810546875 83.912353515625
41.7255859375 2105.18896484375 123.4930419921875
-483.8294677734375 -519.9227294921875 -168.9652099609375
28.2056884765625 34.6893310546875 258.2425537109375
-163.270263671875 5.627197265625 210.9857177734375
307.638671875 194.8465576171875 130.8978271484375
435.92572021484375 110.123291015625 91.0516357421875
636.9944458007812 -731.029052734375 -38.259765625
459.478271484375 100.3177490234375 89.62939453125
1019.3038330078125 -615.39990234375 -135.84326171875
366.725341796875 -383.0003662109375 -27.0203857421875
454.0838623046875 80.5511474609375 78.6107177734375
586.494384765625 -697.098876953125 -30.031005859375
456.209228515625 107.5718994140625 91.7310791015625
-431.51416015625 -157.0150146484375 40.0648193359375
428.20867919921875 92.8780517578125 82.9881591796875
-269.8082275390625 -155.6600341796875 98.9324951171875
480.322998046875 -755.83740234375 -38.481689453125
389.3826904296875 380.2529296875 95.140380859375
-1698.09033203125 -931.86328125 -309.113525390625
548.2665405273438 -792.4554443359375 -28.3182373046875
177.798095703125 -485.0196533203125 -1.603271484375
-260.591064453125 204.615478515625 174.3785400390625
1070.9093017578125 -947.447265625 -45.0687255859375
337.1005859375 -395.08795166015625 -32.6588134765625
-65.564697265625 -349.33331298828125 82.2818603515625
136.8385009765625 -603.8980102539062 -0.7955322265625
-282.16650390625 229.966796875 168.0423583984375
114.2177734375 -149.3172607421875 155.632080078125
-309.8511962890625 1362.4881591796875 196.35888671875
-54.9178466796875 -174.431396484375 120.94921875
474.44805908203125 -1922.85009765625 235.98516845703125
201.180419921875 -37.4771728515625 156.5933837890625
284.1593017578125 -110.0897216796875 153.3878173828125
194.06640625 -938.3822021484375 38.5792236328125
474.29425048828125 -1751.029541015625 231.92218017578125
343.836181640625 1756.8839111328125 -188.060302734375
-434.80810546875 483.9205322265625 175.6302490234375
-809.42431640625 599.4420166015625 55.2943115234375
153.924560546875 252.1302490234375 171.440185546875
120.9573974609375 244.6297607421875 169.0179443359375
107.3094482421875 -632.4976806640625 -1.9256591796875
1041.932373046875 -541.4798583984375 -137.100341796875
103.953369140625 -615.9769287109375 1.53271484375
141.267578125 217.3876953125 166.298828125
-300.5015869140625 -999.7679443359375 -372.0789794921875
212.19921875 -716.1104736328125 -18.2095947265625
619.3306884765625 -1747.035400390625 237.5257568359375
-114.9971923828125 59.3553466796875 217.15423583984375
-1312.5791015625 1034.8775634765625 85.8116455078125
-239.82080078125 455.662353515625 185.0999755859375
-1090.757568359375 761.4217529296875 6.56298828125
154.0504150390625 424.63916015625 136.800048828125
-1488.21728515625 677.4898681640625 -9.8514404296875
427.88055419921875 -545.54345703125 -0.83837890625
558.937255859375 -568.4405517578125 -23.138427734375
938.9688720703125 1222.3536376953125 -336.43115234375
109.5443115234375 -666.3606567382812 -3.24755859375
375.2601318359375 1106.4315185546875 -290.962646484375
880.83740234375 1105.1744384765625 -360.0909423828125
193.3946533203125 -705.9991455078125 -18.37109375
378.4674072265625 -957.2786865234375 23.1365966796875
-470.8150634765625 -512.4125366210938 -152.3785400390625
-99.4658203125 545.6451416015625 200.346435546875
248.604248046875 -632.8269653320312 -14.97119140625
-1.953125 -127.399169921875 142.5716552734375
-115.0966796875 582.247314453125 199.000244140625
244.534423828125 -634.3360595703125 -14.77392578125
-493.9395751953125 -556.0977172851562 -196.2960205078125
264.3470458984375 -591.7593994140625 -6.713134765625
-292.6754150390625 259.5184326171875 161.790771484375
245.357177734375 -625.967041015625 -14.4464111328125
-513.3681640625 -294.8775634765625 -66.5233154296875
-333.6097412109375 276.9847412109375 151.85693359375
600.4359130859375 -624.632080078125 -41.6566162109375
-37.1207275390625 1852.5960693359375 22.5003662109375
518.1002197265625 -687.4590454101562 -23.5269775390625
-741.632568359375 -481.11773681640625 -400.9276123046875
1.376953125 1861.9407958984375 -10.9825439453125
-1503.939697265625 244.5555419921875 -92.9453125
12.840576171875 1794.9320068359375 -25.9964599609375
-247.467529296875 175.9202880859375 179.7801513671875
-306.185546875 289.0782470703125 162.8734130859375
-1366.754150390625 -983.3052978515625 -334.5819091796875
216.1788330078125 -950.30810546875 42.97412109375
-164.993408203125 521.4866943359375 204.4102783203125
-346.70068359375 377.7574462890625 166.0833740234375
-256.02734375 -149.090087890625 107.6292724609375
517.8435668945312 -1206.1324462890625 80.444580078125
-1048.1103515625 -185.0609130859375 28.690185546875
1018.71142578125 2567.50244140625 -167.2655029296875
207.252197265625 -665.7284545898438 -15.001953125
-1089.407958984375 407.3079833984375 -55.0064697265625
346.951416015625 -424.59332275390625 -24.8472900390625
-41.928955078125 -327.4049072265625 91.9298095703125
535.5476684570312 -1199.73193359375 78.534912109375
99.096923828125 -156.2525634765625 153.943359375
362.91943359375 -250.4822998046875 -53.00634765625
16.608154296875 212.911376953125 218.79864501953125
730.5792846679688 -558.4342041015625 -43.53466796875
523.5963134765625 -616.1199340820312 -21.8929443359375
523.2119140625 -615.6008911132812 -21.5140380859375
27.973388671875 50.83203125 258.1298828125
216.1611328125 -644.9071044921875 -13.7227783203125
223.9498291015625 -659.689697265625 -16.7900390625
512.44677734375 -1684.513671875 234.02197265625
737.1934814453125 -573.2137451171875 -43.731689453125
-291.3140869140625 330.72900390625 172.6322021484375
510.29425048828125 332.1168212890625 6.6622314453125
489.7020263671875 -1182.252685546875 80.6029052734375
-17.12841796875 -337.773681640625 88.0638427734375
-507.696044921875 342.530517578125 142.1129150390625
1361.046142578125 -908.6749877929688 -57.864990234375
648.2570190429688 -1450.88037109375 185.8338623046875
-32.944091796875 -343.8148193359375 87.6964111328125
-1475.969970703125 681.6365966796875 -12.974365234375
-21.9764404296875 -326.90777587890625 88.747314453125
470.79638671875 -791.4188232421875 -22.2855224609375
-13.430908203125 -344.561767578125 86.359375
1115.6201171875 -796.8001098632812 -89.414794921875
-362.3646240234375 -459.4129638671875 -75.6246337890625
-821.4296875 -442.07196044921875 -399.4400634765625
1972.0443115234375 -1437.365966796875 158.2425537109375
-1730.20703125 28.056884765625 -47.2900390625
173.581787109375 284.5740966796875 179.4486083984375
-330.176025390625 411.6593017578125 180.178466796875
-12.0184326171875 -353.265625 86.947021484375
-224.5274658203125 -4.44384765625 189.3656005859375
-66.238525390625 356.2479248046875 232.70904541015625
-216.707763671875 -18.563720703125 185.5057373046875
-61.8443603515625 -355.90435791015625 80.2869873046875
521.4290161132812 -651.490966796875 -22.2041015625
-22.3798828125 304.5443115234375 237.24609375
-39.9713134765625 297.130615234375 232.3839111328125
-575.211669921875 322.7237548828125 146.334228515625
-477.708984375 358.9635009765625 142.1646728515625
-54.3963623046875 326.692626953125 235.7021484375
515.61376953125 -210.9854736328125 -59.5699462890625
600.4478759765625 -745.364501953125 -41.519287109375
-37.2568359375 292.1107177734375 231.17193603515625
-1034.021240234375 -179.3994140625 30.812744140625
-812.162841796875 -546.9534301757812 -430.7391357421875
-217.75439453125 -202.6795654296875 113.62548828125
-23.71240234375 338.4517822265625 236.66357421875
504.03741455078125 207.5010986328125 107.7459716796875
405.55810546875 98.0377197265625 87.228515625
-322.944580078125 -476.8751220703125 -61.9901123046875
-206.2374267578125 -161.0198974609375 131.5821533203125
270.7515869140625 -979.38427734375 32.097412109375
4.2606201171875 279.655517578125 234.25994873046875
575.9139404296875 -1883.373046875 242.9608154296875
714.7420043945312 -901.8170166015625 5.42333984375
433.34490966796875 -738.3551025390625 -33.6463623046875
331.381591796875 417.9039306640625 105.8665771484375
-1082.253173828125 -1703.3642578125 -332.2763671875
158.5787353515625 -820.193115234375 -2.4283447265625
508.71484375 -177.522705078125 -49.4981689453125
301.87890625 -967.3005981445312 34.06396484375
143.910888671875 -825.985595703125 -3.9866943359375
120.12255859375 -281.867919921875 2.9329833984375
-3.8878173828125 107.7257080078125 257.76751708984375
2271.27294921875 -1082.8994140625 -64.721923828125
-594.17578125 -538.7716674804688 -243.375
-416.20703125 -412.38885498046875 -85.9473876953125
-134.8553466796875 361.6214599609375 212.3905029296875
646.4298095703125 -1468.33544921875 188.9605712890625
-121.7818603515625 332.062744140625 212.3751220703125
152.690673828125 -808.7371826171875 -0.412841796875
13.6005859375 -557.4434814453125 -23.1038818359375
1534.9693603515625 -372.1881103515625 -313.1522216796875
-2.0777587890625 -331.73046875 90.301025390625
202.7509765625 -1151.429931640625 89.4537353515625
242.7940673828125 280.6302490234375 104.2684326171875
691.085693359375 283.17919921875 -82.0499267578125
541.4320678710938 95.2855224609375 76.0018310546875
243.9395751953125 280.8011474609375 102.5845947265625
-1644.959716796875 -524.8258056640625 -149.8084716796875
463.518310546875 -812.2446899414062 -27.5506591796875
471.57061767578125 291.25927734375 59.86572265625
-1095.463623046875 1392.1541748046875 80.11669921875
535.1302490234375 -802.8642578125 -30.5169677734375
404.7418212890625 287.1900634765625 67.025390625
-318.061767578125 45.9443359375 181.3221435546875
499.51202392578125 -180.9176025390625 -48.9405517578125
414.1614990234375 269.96630859375 62.6080322265625
-2249.88818359375 -182.1904296875 -134.6903076171875
152.604736328125 -124.1783447265625 171.31298828125
102.82275390625 -161.3995361328125 150.9822998046875
110.54345703125 -359.74169921875 -18.15283203125
-387.30517578125 193.7474365234375 190.87109375
372.808349609375 85.9583740234375 89.225830078125
2630.9228515625 -945.421630859375 -55.70849609375
-431.165771484375 -382.82513427734375 -81.324951171875
373.19482421875 85.4412841796875 88.839599609375
831.0667114257812 -1855.705322265625 243.83551025390625
375.8074951171875 432.164794921875 89.5281982421875
148.41845703125 -143.6322021484375 157.0001220703125
-142.19775390625 462.3785400390625 212.5689697265625
403.81488037109375 410.049560546875 101.0135498046875
452.0118408203125 -696.737548828125 -33.3099365234375
368.124755859375 436.439453125 86.379638671875
528.5897216796875 54.3167724609375 61.48828125
3.0743408203125 2151.91650390625 177.9188232421875
-125.091552734375 88.9061279296875 209.889404296875
-21.746826171875 201.3343505859375 237.618408203125
247.673583984375 -1151.27392578125 92.08837890625
-55.358642578125 -155.0430908203125 120.74755859375
598.4932861328125 -692.7241821289062 -31.089599609375
589.1781005859375 -112.9443359375 -80.1619873046875
1095.4796142578125 -920.584228515625 -43.0440673828125
607.3819580078125 1853.5140380859375 -207.8248291015625
-258.0123291015625 70.1175537109375 190.64501953125
116.030029296875 378.7135009765625 155.794189453125
-118.632080078125 717.6480712890625 243.587646484375
108.552978515625 409.904541015625 152.7003173828125
174.9791259765625 -553.52685546875 8.4278564453125
104.695556640625 374.9344482421875 159.060546875
-20.708740234375 -435.9588623046875 66.2303466796875
130.01953125 -170.5118408203125 139.8951416015625
112.9215087890625 345.3890380859375 170.8909912109375
174.324462890625 483.3421630859375 145.0321044921875
-679.2073974609375 -718.8201293945312 -478.9464111328125
141.5858154296875 387.0025634765625 146.9444580078125
165.962158203125 -390.4091796875 -29.943359375
0.8359375 439.4493408203125 161.0001220703125
793.941650390625 -230.1961669921875 -83.662353515625
1514.125244140625 -441.37109375 -308.918212890625
272.7149658203125 -1232.03515625 118.1724853515625
1064.6959228515625 24.329345703125 -214.662109375
352.296875 -818.9241943359375 -21.7890625
120.855224609375 -276.3641357421875 3.226806640625
214.62841796875 -947.1156005859375 43.3143310546875
140.337646484375 1423.9049072265625 -59.575927734375
537.85009765625 -645.6817016601562 -24.7926025390625
105.8460693359375 -286.8404541015625 5.683349609375
-11.2724609375 -479.05255126953125 52.8878173828125
353.6114501953125 -818.4112548828125 -21.6895751953125
1020.2242431640625 2568.12451171875 -166.9468994140625
-565.40283203125 -640.9474487304688 -294.45166015625
475.12432861328125 301.8948974609375 61.308349609375
-737.915771484375 -732.4480590820312 -502.9559326171875
260.7384033203125 -1245.9630126953125 116.942138671875
458.57672119140625 -1757.071044921875 231.314453125
133.613037109375 487.7615966796875 148.6641845703125
585.0205688476562 -578.234619140625 -30.764404296875
264.217041015625 1384.6270751953125 -98.6766357421875
-1292.818115234375 578.0164794921875 -15.5560302734375
320.018310546875 -587.8389892578125 -10.3699951171875
1897.197021484375 970.7242431640625 -220.05322265625
68.915771484375 -319.7537841796875 -5.1533203125
-329.87646484375 -405.6424560546875 -30.882568359375
-452.896484375 1859.5819091796875 191.0689697265625
-1080.242431640625 1397.7657470703125 79.172607421875
-202.691650390625 -51.1397705078125 163.85009765625
265.044189453125 250.59130859375 78.9039306640625
232.9830322265625 79.3555908203125 164.8865966796875
325.925537109375 -595.9847412109375 -16.01220703125
-335.472412109375 -395.5401611328125 -28.1177978515625
432.3074951171875 -788.7210693359375 -22.2293701171875
647.0130615234375 -727.468505859375 -39.73486328125
585.9913940429688 382.4832763671875 -78.54296875
369.36248779296875 -640.934814453125 -28.0716552734375
249.4041748046875 214.5596923828125 107.0457763671875
468.510986328125 -810.181640625 -26.4337158203125
391.31475830078125 -1544.142578125 211.1737060546875
343.5146484375 -804.138916015625 -16.2940673828125
195.9093017578125 -342.43975830078125 -17.7410888671875
-1230.4794921875 521.5865478515625 -15.84765625
402.7374267578125 -405.3624267578125 -36.542236328125
61.531494140625 -473.13006591796875 -3.5823974609375
57.990966796875 -378.3277587890625 -22.3863525390625
482.734619140625 123.249267578125 99.12109375
196.04931640625 -342.6405029296875 -17.866455078125
630.1737060546875 -559.0592041015625 -25.1878662109375
989.4251708984375 -559.9344482421875 -128.049072265625
2012.536865234375 1009.4847412109375 -179.396240234375
1615.61962890625 9.9752197265625 -315.864013671875
1027.2923583984375 -814.474609375 -82.1767578125
240.60498046875 8.12109375 132.0924072265625
603.0856323242188 -726.9502563476562 -40.4599609375
118.92529296875 -155.72021484375 151.0401611328125
-464.557861328125 329.405029296875 141.95947265625
100.8626708984375 -687.0924682617188 -4.5037841796875
1035.446533203125 -491.4384765625 -132.343994140625
-258.64990234375 1.3447265625 175.3958740234375
-656.27099609375 -170.3729248046875 -125.137939453125
533.986083984375 -352.13690185546875 -13.659423828125
1011.343994140625 -482.69580078125 -128.42724609375
403.7833251953125 -679.228759765625 -25.2713623046875
517.7949829101562 -1682.52685546875 233.786376953125
575.4041137695312 291.9073486328125 33.350341796875
388.126220703125 -685.2703247070312 -26.0262451171875
219.673583984375 -616.2489013671875 -7.7159423828125
525.9442138671875 -207.0924072265625 -59.6693115234375
629.75830078125 -1726.2181396484375 235.0941162109375
408.357666015625 -386.16375732421875 -34.263427734375
-731.97412109375 -698.499755859375 -463.018798828125
19.071044921875 -601.8817749023438 -34.0203857421875
-382.378173828125 666.5836181640625 150.390380859375
574.022216796875 -683.9804077148438 -26.271728515625
798.52783203125 -96.6966552734375 -116.434814453125
616.470703125 -0.406982421875 50.4761962890625
986.1905517578125 -509.55706787109375 -129.0264892578125
397.39996337890625 -664.449951171875 -25.63818359375
476.1080322265625 -412.80224609375 -41.0120849609375
592.5760498046875 -1522.048583984375 196.429931640625
520.88134765625 -939.5748291015625 12.39013671875
-310.397216796875 632.9927978515625 165.9744873046875
454.795654296875 -797.45947265625 -22.2015380859375
-340.4697265625 620.9063720703125 161.4298095703125
52.951171875 -497.7462158203125 -1.561767578125
1049.75146484375 -521.0003662109375 -135.36865234375
373.6956787109375 -1123.788818359375 73.2091064453125
-1088.446044921875 -243.8831787109375 8.612060546875
-1227.23388671875 -488.38629150390625 -116.91845703125
493.3431396484375 -405.885498046875 -38.4730224609375
912.0932006835938 -415.06201171875 -95.54052734375
418.65802001953125 134.077392578125 107.3905029296875
-987.25732421875 -160.8900146484375 36.0498046875
78.39013671875 262.1004638671875 163.0740966796875
135.8680419921875 185.54296875 196.4449462890625
-952.065673828125 -220.0313720703125 13.916015625
222.12744140625 1382.9862060546875 -77.9107666015625
574.4304809570312 -13.6131591796875 67.7896728515625
1119.9462890625 -947.3786010742188 -52.9765625
-133.4959716796875 533.5692138671875 205.47265625
-14.6756591796875 1963.7843017578125 238.577880859375
1361.7261962890625 330.3460693359375 -300.4632568359375
589.1290283203125 -1809.490234375 242.17889404296875
-555.341064453125 -443.32757568359375 -168.041259765625
6.6982421875 -972.6806030273438 -58.660888671875
512.3216552734375 50.74658203125 59.5543212890625
1390.2835693359375 1170.7618408203125 -290.5064697265625
92.35498046875 214.1326904296875 180.7890625
375.5806884765625 -115.524169921875 117.9783935546875
387.542724609375 -811.3106079101562 -25.0635986328125
264.708984375 -1126.72900390625 97.529541015625
591.054443359375 -678.5823974609375 -28.185302734375
2753.064697265625 -1166.860595703125 -2.0374755859375
20.209716796875 -1031.763916015625 -27.8140869140625
-1333.170166015625 1580.3109130859375 93.4119873046875
256.6168212890625 -612.003173828125 -11.501220703125
669.8890380859375 -1915.6337890625 250.5869140625
-1927.719482421875 -773.524169921875 -283.33056640625
250.083984375 -881.390869140625 22.2705078125
-546.602783203125 -514.5650024414062 -203.5634765625
480.33807373046875 -577.80224609375 -3.0972900390625
311.390380859375 -644.2681274414062 -19.420166015625
635.7686767578125 -1740.9959716796875 236.37249755859375
-76.974365234375 385.80029296875 227.01190185546875
300.5625 -335.94287109375 -7.2354736328125
1046.44873046875 18.3033447265625 -209.032958984375
1203.35205078125 -734.2227783203125 -105.3358154296875
113.446533203125 1679.9063720703125 -122.7103271484375
190.348388671875 -583.9185791015625 -2.5006103515625
813.9305419921875 -125.2899169921875 -123.193115234375
1023.513671875 278.8868408203125 -252.378173828125
196.831298828125 -571.84130859375 0.13916015625
1085.8724365234375 -811.1427612304688 -92.3133544921875
208.5155029296875 -594.5177612304688 -3.9208984375
-1409.7822265625 1687.5572509765625 82.0115966796875
718.8556518554688 -90.322021484375 -110.7886962890625
170.0234375 227.141845703125 159.080078125
-1171.954833984375 555.1466064453125 -12.9478759765625
524.4139404296875 306.1719970703125 27.2830810546875
-264.4857177734375 342.8240966796875 185.1046142578125
-1017.226806640625 -619.1953125 -306.8565673828125
-388.8868408203125 601.7325439453125 155.944580078125
-523.71044921875 -502.4593505859375 -181.472900390625
342.86016845703125 -127.6033935546875 119.905029296875
1076.440673828125 -793.6107177734375 -88.2000732421875
-570.61865234375 -526.667724609375 -222.90869140625
420.8914794921875 -99.849365234375 108.56103515625
232.112060546875 5.314697265625 134.70166015625
257.5478515625 1329.8309326171875 -62.207763671875
235.2685546875 16.5972900390625 135.98095703125
-6.8162841796875 -494.9912109375 50.4935302734375
486.7574462890625 60.1490478515625 66.3341064453125
-46.599365234375 53.982666015625 238.00799560546875
-158.626220703125 -62.294677734375 181.8946533203125
215.7982177734375 -609.2990112304688 -5.7515869140625
240.8385009765625 -618.04443359375 -11.960205078125
-34.73046875 24.4273681640625 240.93603515625
-75.419921875 41.8929443359375 230.40447998046875
-18.4454345703125 66.0743408203125 247.24151611328125
496.26141357421875 -966.033447265625 13.0797119140625
-63.322265625 12.3370361328125 232.7735595703125
615.14599609375 -722.2923583984375 -39.8515625
509.5145263671875 -1501.8748779296875 195.4432373046875
123.31689453125 -660.3140869140625 2.1124267578125
-1135.67529296875 -602.65380859375 -217.335693359375
-332.36962890625 348.1954345703125 162.994873046875
-153.64453125 491.9324951171875 208.609375
-1.820556640625 -190.8336181640625 108.1929931640625
408.7357177734375 -945.84765625 23.0025634765625
464.3741455078125 -1754.82080078125 231.6783447265625
517.8943481445312 -958.1436157226562 11.1883544921875
135.431640625 -568.320556640625 9.511962890625
-394.590576171875 -287.375 -0.4693603515625
1018.4398193359375 -835.296142578125 -83.5941162109375
-295.486328125 -96.5443115234375 97.8173828125
109.941162109375 -408.4342041015625 -9.61083984375
-283.5921630859375 -122.064697265625 96.31982421875
-310.7705078125 -66.979736328125 103.2354736328125
1386.545166015625 1169.2349853515625 -291.2276611328125
665.9949951171875 -855.284423828125 -20.4163818359375
810.8486938476562 -397.970703125 -94.302734375
-322.5596923828125 -103.4698486328125 80.353271484375
544.544921875 69.3338623046875 63.9964599609375
-316.1212158203125 -106.6632080078125 82.991455078125
1676.926513671875 310.1876220703125 -309.46630859375
-981.922607421875 -648.6428833007812 -361.3819580078125
-85.873779296875 71.4444580078125 224.018310546875
315.739990234375 -642.7330322265625 -20.12890625
1272.382568359375 -867.8389282226562 -76.9407958984375
1101.79541015625 -805.1019287109375 -92.2081298828125
450.187744140625 -554.2814331054688 -0.367431640625
-422.7332763671875 -302.5377197265625 -29.4259033203125
1298.723388671875 -848.1267700195312 -71.5145263671875
1670.29833984375 220.04541015625 -312.0797119140625
681.9185791015625 -944.976806640625 -7.961181640625
278.887451171875 -585.134033203125 -3.857177734375
-868.779296875 -600.990234375 -418.6417236328125
135.264404296875 -329.6082763671875 -8.0697021484375
1267.1824951171875 -860.209228515625 -72.470458984375
603.538818359375 -542.780517578125 -23.2254638671875
678.395751953125 -1844.4423828125 243.96746826171875
515.1072998046875 -636.9424438476562 -24.198486328125
666.1546020507812 -1814.88623046875 241.94903564453125
460.81085205078125 252.4847412109375 58.5765380859375
782.0738525390625 -1064.854736328125 13.4462890625
655.0971069335938 -1788.77197265625 240.75750732421875
224.775390625 181.1976318359375 166.0089111328125
-742.23779296875 -481.434814453125 -401.4925537109375
2352.51025390625 -1184.972412109375 -31.366455078125
-752.981201171875 -451.68768310546875 -405.921630859375
139.3125 -303.4632568359375 -3.0399169921875
319.350830078125 -620.806884765625 -18.67529296875
918.5569458007812 -1010.4373779296875 -14.560546875
138.531494140625 -310.3680419921875 -3.2418212890625
519.9112548828125 -1750.206787109375 237.14874267578125
-777.384521484375 -475.302490234375 -416.932373046875
121.854736328125 -316.4068603515625 -1.5047607421875
670.5843505859375 -89.619873046875 -99.7940673828125
866.1787719726562 430.278564453125 -227.3388671875
729.1563720703125 -114.07373046875 -110.3009033203125
544.6412353515625 -165.4520263671875 -59.259033203125
-319.92529296875 318.638671875 164.5169677734375
724.4124755859375 -122.947265625 -112.232421875
590.6902465820312 -551.0204467773438 -28.4742431640625
1258.4794921875 -881.0313110351562 -74.2537841796875
-59.7716064453125 805.4625244140625 221.3951416015625
-863.266845703125 -671.8880615234375 -444.158203125
262.9840087890625 -1109.62451171875 100.77490234375
-855.896728515625 -625.5464477539062 -425.7855224609375
-781.681640625 -459.37060546875 -417.6578369140625
1114.5936279296875 -1015.2896728515625 -32.973388671875
520.4693603515625 394.1729736328125 -58.2469482421875
-381.41650390625 -135.5286865234375 56.3033447265625
635.3968505859375 -1438.7823486328125 183.98974609375
-909.53466796875 -613.62841796875 -400.80322265625
569.8909301757812 379.8792724609375 -72.509521484375
-156.291259765625 248.7742919921875 204.5040283203125
389.2969970703125 2332.28271484375 -148.5538330078125
144.4468994140625 -583.0731201171875 3.662353515625
-257.473876953125 654.448486328125 175.160400390625
271.8330078125 -605.96044921875 -9.668701171875
-349.2587890625 -191.9483642578125 58.9874267578125
73.8604736328125 -405.742919921875 -15.4388427734375
-794.509521484375 -751.6656494140625 -526.0938720703125
303.1080322265625 -734.5587158203125 -25.197265625
-785.334716796875 540.71923828125 62.7840576171875
1314.6220703125 -842.0859375 -71.349609375
-944.3642578125 -684.0476684570312 -414.9786376953125
-864.292724609375 -530.0137329101562 -416.8836669921875
498.7911376953125 98.681884765625 86.4088134765625
774.21337890625 -338.82537841796875 -68.6414794921875
113.86181640625 -319.132080078125 0.411865234375
494.06866455078125 -1709.39208984375 229.69964599609375
-845.440185546875 -559.03125 -427.4522705078125
-251.85205078125 -256.44580078125 72.81689453125
-1034.926025390625 -327.52447509765625 -31.8643798828125
196.4210205078125 -443.3790283203125 -1.01123046875
377.26409912109375 -1471.86572265625 212.9722900390625
345.5458984375 -596.585693359375 -17.769287109375
-1121.214599609375 1795.1732177734375 71.9891357421875
-197.89208984375 266.2420654296875 196.1990966796875
386.8018798828125 -1493.76171875 213.3197021484375
350.078369140625 -1491.068603515625 209.0621337890625
412.83795166015625 -1465.5244140625 210.2716064453125
714.5430908203125 -565.0076904296875 -46.78125
282.0972900390625 -565.985595703125 0.522216796875
405.33349609375 -1452.1209716796875 214.134765625
-375.0157470703125 -132.832275390625 58.0650634765625
412.888916015625 -1467.1124267578125 210.2940673828125
479.084228515625 71.805908203125 72.4993896484375
622.0904541015625 -737.0726928710938 -40.855712890625
380.248291015625 -1478.982421875 213.36865234375
130.107177734375 730.9366455078125 167.804443359375
389.3809814453125 -1458.1617431640625 214.1011962890625
418.0650634765625 -708.79052734375 -28.2392578125
83.230712890625 133.4954833984375 211.6463623046875
707.7655639648438 -549.69482421875 -42.7672119140625
242.571533203125 121.0203857421875 187.5555419921875
476.3416748046875 -705.4578857421875 -37.6343994140625
-277.566650390625 372.3826904296875 185.137939453125
-741.365478515625 766.0218505859375 73.380859375
-332.83984375 -150.3017578125 64.9649658203125
528.7587280273438 276.4669189453125 48.78173828125
-561.888916015625 -217.500732421875 -31.5020751953125
561.6395263671875 256.70458984375 62.2586669921875
523.7616577148438 -1778.1451416015625 238.2926025390625
588.7003784179688 -1540.8232421875 196.063720703125
528.4814453125 276.542724609375 48.668212890625
1658.505615234375 26.07177734375 -316.692626953125
531.7293701171875 247.105224609375 73.2708740234375
310.603759765625 204.2191162109375 113.5064697265625
128.859130859375 -592.9164428710938 6.8494873046875
1652.4580078125 -70.398681640625 -319.0614013671875
1669.717529296875 -108.2637939453125 -320.3343505859375
-143.8187255859375 563.1204833984375 198.7662353515625
219.2332763671875 37.701904296875 152.3865966796875
199.55712890625 67.2781982421875 168.536865234375
457.6380615234375 -1710.5335693359375 228.873291015625
250.86767578125 48.1026611328125 142.329833984375
566.9302978515625 -130.33203125 -76.4190673828125
253.3314208984375 53.2548828125 143.3323974609375
515.4777221679688 -1718.127685546875 232.3651123046875
444.233642578125 -681.931884765625 -30.120361328125
-379.34375 436.8919677734375 181.98876953125
531.724853515625 -1712.087646484375 231.67822265625
224.66845703125 -605.932373046875 -5.6832275390625
392.047119140625 -543.7847290039062 -6.2626953125
314.4853515625 -677.7841796875 -20.603759765625
536.49560546875 -1726.8623046875 235.98602294921875
815.3221435546875 -620.3030395507812 -92.7574462890625
783.005859375 -137.3740234375 -125.655029296875
952.4854736328125 -538.45751953125 -121.952880859375
31.4844970703125 -275.3682861328125 38.419189453125
267.8497314453125 15.7347412109375 114.8121337890625
951.0479736328125 -521.6298828125 -121.1810302734375
954.2646484375 -528.85595703125 -121.2353515625
377.1468505859375 -1497.4720458984375 212.9525146484375
488.8018798828125 57.01806640625 64.7183837890625
-128.5849609375 -57.2969970703125 194.1824951171875
-566.1461181640625 -639.5845336914062 -294.107421875
490.8372802734375 749.1141357421875 -369.64892578125
-454.8564453125 -282.0240478515625 -41.1953125
150.339599609375 -788.6471557617188 -1.39697265625
564.541748046875 -514.3832397460938 -21.96337890625
965.7705078125 -409.15728759765625 -99.4072265625
553.630859375 -518.0575561523438 -19.05322265625
-215.352783203125 396.550048828125 189.171630859375
303.76171875 -507.903076171875 -11.4580078125
428.1842041015625 309.629638671875 76.59375
210.885498046875 -978.5169677734375 40.8389892578125
415.5528564453125 -1431.3031005859375 212.2119140625
-1296.308349609375 744.9246826171875 -43.0308837890625
205.97265625 -967.9376220703125 41.4161376953125
341.84051513671875 -667.789794921875 -22.882568359375
197.8109130859375 -986.1596069335938 35.4969482421875
732.8568115234375 -119.8831787109375 -113.0711669921875
1330.572998046875 990.2371826171875 -313.9359130859375
-223.04443359375 582.4320068359375 189.3284912109375
-269.381591796875 615.5263671875 175.709228515625
434.0810546875 -702.7498779296875 -28.3604736328125
518.7118530273438 -1205.770263671875 80.6602783203125
216.1724853515625 -963.8336791992188 42.9864501953125
385.9271240234375 1183.1719970703125 -217.6767578125
621.3804321289062 -1797.40966796875 241.3985595703125
478.5423583984375 -76.6685791015625 97.6248779296875
-289.2724609375 58.0343017578125 189.0023193359375
272.3392333984375 -978.8790283203125 31.484619140625
1562.9989013671875 -626.3296508789062 -286.0545654296875
250.416015625 -968.6331176757812 39.75341796875
233.8985595703125 -1121.713623046875 93.8184814453125
-262.419189453125 -42.7752685546875 141.1446533203125
361.836669921875 1136.5032958984375 -227.4837646484375
95.634521484375 -364.11065673828125 -22.5474853515625
248.7203369140625 -978.1522216796875 39.0699462890625
-538.974853515625 -175.4517822265625 -15.7957763671875
646.0880126953125 -710.2081909179688 -37.431396484375
-25.781982421875 -358.595703125 86.16015625
721.2470703125 -952.6812133789062 -4.6561279296875
-377.1624755859375 365.6719970703125 162.4903564453125
315.429443359375 -730.2548828125 -27.4925537109375
-1042.54248046875 -511.2139892578125 -179.3245849609375
472.0758056640625 -596.7752685546875 -7.9580078125
-204.949462890625 1553.3035888671875 280.478759765625
-449.8292236328125 -346.48480224609375 -74.9681396484375
695.9915771484375 2304.89501953125 -183.2840576171875
516.8937377929688 -156.6993408203125 -46.4345703125
104.465087890625 -651.0032958984375 -3.0692138671875
509.9810791015625 -159.041259765625 -44.6802978515625
-372.359130859375 367.5633544921875 162.9649658203125
295.2022705078125 -988.1280517578125 27.3294677734375
526.3450927734375 -171.4864501953125 -53.56494140625
2092.46826171875 -355.54302978515625 -276.6995849609375
421.80828857421875 73.2838134765625 74.243896484375
-447.0087890625 -56.2357177734375 60.1651611328125
47.58740234375 -1351.4063720703125 68.5396728515625
329.63995361328125 -791.822509765625 -14.2772216796875
-73.1007080078125 800.9071044921875 224.5230712890625
-1981.147705078125 926.0555419921875 125.0555419921875
958.1563720703125 -429.58966064453125 -101.33349609375
516.1827392578125 -636.5618896484375 -24.367431640625
309.946533203125 -982.083984375 30.315673828125
-538.611083984375 -585.800537109375 -237.26123046875
103.123046875 -161.761474609375 150.6390380859375
328.253173828125 -1499.149169921875 210.197509765625
101.9007568359375 -162.2291259765625 150.6058349609375
2110.6728515625 -484.48529052734375 -262.718994140625
982.2152099609375 -502.36614990234375 -127.078125
934.8869018554688 -420.120849609375 -94.781982421875
986.160400390625 -491.763671875 -125.475341796875
-74.177001953125 -84.76953125 181.974609375
978.0963134765625 -494.773681640625 -125.212646484375
183.072021484375 -656.9853515625 -10.895263671875
271.67431640625 -980.6552734375 31.2144775390625
889.3401489257812 -403.3704833984375 -98.1143798828125
708.702392578125 -931.36865234375 2.984375
-764.3505859375 -130.1759033203125 -86.571533203125
1002.5419311523438 -503.51739501953125 -129.9681396484375
981.7598876953125 -545.1522216796875 -125.2833251953125
177.1614990234375 -980.0274658203125 33.7890625
898.0902099609375 -433.698486328125 -92.57373046875
480.03948974609375 -712.4910888671875 -39.074462890625
-601.4501953125 -580.4427490234375 -271.6993408203125
526.0579223632812 -1747.6795654296875 238.44244384765625
494.60498046875 -186.4266357421875 -50.9425048828125
574.688720703125 -13.5321044921875 67.6829833984375
512.6956787109375 -959.9940185546875 11.9356689453125
495.22686767578125 264.5594482421875 52.5067138671875
-159.869384765625 420.7354736328125 209.6527099609375
202.6243896484375 -1133.796875 92.2099609375
713.1845703125 -937.8978271484375 -0.9200439453125
-1380.589599609375 1010.7257080078125 95.9439697265625
925.0341796875 -441.6678466796875 -98.4254150390625
-258.5513916015625 585.9737548828125 181.1756591796875
1636.685546875 294.7750244140625 -310.6689453125
500.67852783203125 -73.2747802734375 85.391845703125
592.9589233398438 -1773.8935546875 239.90386962890625
-206.392333984375 538.4190673828125 196.1910400390625
-322.15478515625 490.59619140625 166.3695068359375
481.83111572265625 -1988.1319580078125 241.9473876953125
306.1802978515625 -138.8956298828125 130.6673583984375
1011.010009765625 -820.5145263671875 -81.40380859375
-118.114501953125 818.3841552734375 224.558837890625
