28.93115234375 183.8626708984375 223.873291015625
403.7833251953125 -679.228759765625 -25.2713623046875
57.113525390625 -256.1531982421875 46.1253662109375
101.8985595703125 -669.38623046875 -4.099365234375
411.1273193359375 206.302978515625 104.2294921875
429.95941162109375 -652.3701171875 -27.170654296875
109.5443115234375 -666.3606567382812 -3.24755859375
123.31689453125 -660.3140869140625 2.1124267578125
250.9580078125 -683.2410888671875 -12.0916748046875
360.3343505859375 -590.5418090820312 -14.8914794921875
1127.5791015625 789.2733154296875 -329.4718017578125
139.77490234375 -654.274658203125 0.9110107421875
92.718994140625 303.7525634765625 174.1600341796875
420.2235107421875 -673.189208984375 -26.4293212890625
31.8599853515625 352.261474609375 190.384521484375
146.776611328125 -652.2360229492188 -3.004638671875
-391.8203125 395.2344970703125 166.377685546875
227.0072021484375 352.0606689453125 158.1304931640625
177.537109375 -77.0472412109375 181.4639892578125
918.8740844726562 1262.2091064453125 -330.3743896484375
254.7203369140625 -647.6051025390625 -13.9510498046875
1360.7412109375 -291.027099609375 -300.1845703125
176.088623046875 -642.2049560546875 -9.79638671875
-164.993408203125 521.4866943359375 204.4102783203125
150.45556640625 -805.4095458984375 1.456298828125
539.5839233398438 -531.662841796875 -14.8507080078125
207.95458984375 -630.123291015625 -9.6346435546875
217.7764892578125 -626.2274169921875 -8.4813232421875
20.929443359375 254.6522216796875 220.52117919921875
-363.460693359375 407.3255615234375 175.10791015625
165.8621826171875 -799.3673095703125 2.823486328125
181.4998779296875 -793.3258056640625 3.6258544921875
196.534423828125 -788.1630859375 0.2550048828125
542.495361328125 -539.9691772460938 -13.705810546875
98.545654296875 -705.364990234375 -5.4320068359375
199.302490234375 -787.2899169921875 -0.8616943359375
-131.47119140625 -133.9019775390625 124.0804443359375
217.513427734375 -781.578125 -8.41845703125
74.753662109375 -506.4827880859375 0.1422119140625
-47.819580078125 -171.8233642578125 120.4521484375
218.556640625 -781.258056640625 -8.896728515625
376.52288818359375 -655.7156982421875 -29.603515625
25.468505859375 -330.202880859375 33.2569580078125
258.4176025390625 -389.6875 -28.3792724609375
-470.918701171875 414.1236572265625 157.084228515625
-258.64990234375 1.3447265625 175.3958740234375
472.0758056640625 -596.7752685546875 -7.9580078125
46.496826171875 155.1431884765625 265.595458984375
-367.486083984375 508.0740966796875 167.1802978515625
135.812255859375 183.671142578125 198.6058349609375
180.0712890625 183.0225830078125 182.215576171875
-772.907958984375 1026.6287841796875 51.0692138671875
47.5889892578125 553.718017578125 196.5999755859375
413.26324462890625 -551.5878295898438 -4.13427734375
41.235107421875 -367.45379638671875 -22.6270751953125
384.3787841796875 -704.0095825195312 -26.47607421875
31.111083984375 -330.3978271484375 18.3150634765625
-257.644287109375 -185.2161865234375 101.1395263671875
412.821044921875 -728.6217041015625 -32.0611572265625
193.9521484375 -757.7520751953125 -19.719482421875
-61.30810546875 771.3519287109375 227.63787841796875
518.450439453125 -687.3201904296875 -23.486083984375
493.4952392578125 -506.62353515625 -21.0814208984375
263.515380859375 259.0013427734375 78.26904296875
203.2745361328125 -667.1348876953125 -14.370849609375
347.9327392578125 -353.42633056640625 -13.0289306640625
447.02801513671875 -716.1890258789062 -35.3280029296875
-163.270263671875 5.627197265625 210.9857177734375
-452.820556640625 544.3511962890625 164.3472900390625
392.047119140625 -543.7847290039062 -6.2626953125
434.1075439453125 349.0692138671875 78.974365234375
17.8150634765625 -488.82086181640625 30.299072265625
498.12939453125 205.5047607421875 109.2781982421875
350.55029296875 -630.0335083007812 -23.1490478515625
82.580078125 -313.70684814453125 0.4716796875
251.066650390625 -683.2022705078125 -12.1068115234375
-94.55615234375 -357.10589599609375 70.4266357421875
510.29425048828125 332.1168212890625 6.6622314453125
-381.41650390625 -135.5286865234375 56.3033447265625
-52.532958984375 641.0675048828125 255.89013671875
-237.483154296875 111.7529296875 186.5782470703125
588.606201171875 -505.98431396484375 -26.4898681640625
-2.782470703125 -458.0511474609375 56.3389892578125
141.708740234375 -610.912841796875 -5.1239013671875
295.8961181640625 171.498291015625 160.6207275390625
-346.70068359375 377.7574462890625 166.0833740234375
447.378662109375 353.2581787109375 73.6368408203125
23.63671875 -488.9365234375 15.430419921875
236.72412109375 -576.9156494140625 -0.78173828125
-785.255615234375 -718.9771118164062 -492.8966064453125
-56.823974609375 674.1580810546875 257.2476806640625
-138.484130859375 -83.599365234375 155.6578369140625
94.884765625 -539.8681640625 12.1116943359375
-354.291015625 -341.27392578125 -1.3756103515625
522.189208984375 -616.6583251953125 -21.9312744140625
340.68896484375 392.6224365234375 109.7030029296875
291.19873046875 -478.4100341796875 -13.1004638671875
1321.826416015625 726.6658935546875 -317.225830078125
523.400390625 89.937744140625 81.253662109375
-235.96337890625 146.509765625 184.5201416015625
236.642578125 350.562744140625 136.1767578125
87.729736328125 140.8631591796875 247.98175048828125
-826.61572265625 1074.4144287109375 45.3055419921875
-162.339111328125 -291.3988037109375 74.0035400390625
379.6768798828125 -341.3443603515625 -12.5689697265625
-247.6995849609375 -327.67108154296875 48.5009765625
12.966064453125 -327.6617431640625 79.8917236328125
-12.0184326171875 -353.265625 86.947021484375
-22.773681640625 338.7750244140625 236.458984375
-2.4656982421875 -299.9871826171875 73.5465087890625
-1554.885009765625 226.0499267578125 -88.0113525390625
-77.4320068359375 -326.339111328125 86.4462890625
16.6378173828125 -296.1737060546875 51.64990234375
159.4071044921875 -648.2437744140625 -8.0482177734375
473.6246337890625 78.89404296875 78.1905517578125
-17.851318359375 1109.9493408203125 302.2498779296875
-379.18505859375 537.6290283203125 163.8367919921875
485.295166015625 90.247802734375 82.9537353515625
506.94671630859375 -588.5767822265625 -10.9483642578125
523.3660888671875 89.9888916015625 81.2821044921875
509.887451171875 141.0941162109375 110.2127685546875
449.2227783203125 -571.8538208007812 -0.0859375
18.717529296875 760.4100341796875 184.55859375
123.866455078125 -732.5529174804688 -12.291748046875
44.6651611328125 -290.165283203125 22.1756591796875
-40.9783935546875 397.8709716796875 217.0814208984375
61.990966796875 -284.128173828125 18.85302734375
-299.5166015625 16.3712158203125 167.9354248046875
483.435546875 -684.6316528320312 -31.9195556640625
182.8116455078125 268.7979736328125 173.9298095703125
332.385498046875 -30.107421875 106.76904296875
20.066162109375 -433.391357421875 48.4107666015625
267.7796630859375 -677.16357421875 -13.9317626953125
325.925537109375 -595.9847412109375 -16.01220703125
-41.928955078125 -327.4049072265625 91.9298095703125
528.733154296875 276.63671875 48.6605224609375
371.7974853515625 -483.7513427734375 -21.651123046875
7.13818359375 986.8328857421875 283.07891845703125
518.1002197265625 -687.4590454101562 -23.5269775390625
-190.553955078125 -6.4666748046875 199.6263427734375
478.24346923828125 29.5303955078125 55.3741455078125
-54.478759765625 590.82861328125 223.7965087890625
-25.986572265625 783.4244384765625 219.355712890625
-521.515625 376.437744140625 139.250244140625
345.13067626953125 -56.3955078125 128.5247802734375
-165.6744384765625 -285.4664306640625 75.747802734375
100.7742919921875 -687.4844970703125 -4.53955078125
386.9617919921875 -720.8742065429688 -30.2645263671875
1.5291748046875 -388.19244384765625 51.3524169921875
341.59893798828125 -705.8438110351562 -26.7288818359375
19.571044921875 665.2083740234375 235.7552490234375
100.8626708984375 -687.0924682617188 -4.5037841796875
32.047607421875 -505.156005859375 1.6387939453125
-247.467529296875 175.9202880859375 179.7801513671875
150.339599609375 -788.6471557617188 -1.39697265625
-1549.782958984375 -1483.101318359375 -440.5211181640625
239.4688720703125 -653.647705078125 -15.697265625
466.1375732421875 357.8502197265625 57.5694580078125
-142.28076171875 -262.8984375 85.2960205078125
247.458740234375 -563.0884399414062 3.5958251953125
327.9259033203125 -638.22900390625 -20.8115234375
-130.5301513671875 432.8238525390625 215.989013671875
-388.615966796875 193.2725830078125 191.006103515625
543.6901245117188 -1963.963623046875 246.84814453125
490.181396484375 -699.4114990234375 -32.4381103515625
606.30322265625 -1939.79736328125 249.9061279296875
209.721923828125 -523.3069458007812 7.299560546875
146.6268310546875 -618.68603515625 -8.7491455078125
-37.7969970703125 -310.2275390625 93.6019287109375
282.2945556640625 -706.5738525390625 -16.4937744140625
1202.8441162109375 955.8338623046875 -328.99462890625
84.746337890625 -485.6644287109375 -1.2265625
-1643.727294921875 59.5257568359375 -55.3094482421875
100.1102294921875 -525.3506469726562 9.8367919921875
68.895751953125 647.7196044921875 225.185546875
-256.401611328125 -114.0054931640625 112.2708740234375
-723.149658203125 -1050.8798828125 -559.4422607421875
507.743408203125 83.8961181640625 80.498291015625
83.3988037109375 -607.2435913085938 -3.22021484375
-219.133544921875 -315.58062744140625 56.7266845703125
265.442626953125 -590.596435546875 -6.2659912109375
179.1910400390625 -778.557861328125 -6.6981201171875
-371.995849609375 -275.2684326171875 22.3487548828125
310.668212890625 49.972900390625 97.7940673828125
449.8380126953125 57.364990234375 68.4803466796875
377.26629638671875 -342.2506103515625 -12.5323486328125
857.2616577148438 1665.3240966796875 -250.8675537109375
-191.392822265625 -301.889892578125 65.241455078125
1334.06640625 1008.0491943359375 -312.5257568359375
449.4139404296875 -552.8444213867188 -0.028564453125
270.849365234375 376.4835205078125 115.643798828125
-268.5887451171875 443.5723876953125 177.367431640625
-14.212646484375 -547.7953491210938 34.5089111328125
459.7506103515625 -521.9992065429688 -13.0836181640625
-1462.26806640625 -1089.83349609375 -350.4478759765625
1080.115234375 907.4945068359375 -341.213134765625
120.12255859375 -281.867919921875 2.9329833984375
170.861083984375 -671.9986572265625 -10.3785400390625
-267.6668701171875 -226.8798828125 79.5311279296875
134.2950439453125 286.2847900390625 182.5250244140625
-91.8837890625 -296.77685546875 89.8299560546875
196.9932861328125 -772.5220947265625 -11.184814453125
424.576171875 -430.2044677734375 -27.5782470703125
424.2628173828125 -681.4002685546875 -27.430908203125
17.229248046875 -451.893798828125 47.2701416015625
163.1866455078125 -612.6468505859375 -10.1998291015625
244.4659423828125 -651.6146240234375 -14.7830810546875
1330.572998046875 990.2371826171875 -313.9359130859375
215.3092041015625 -766.4876708984375 -16.9271240234375
-319.56201171875 -251.0748291015625 50.2816162109375
-707.51806640625 -766.0656127929688 -540.9669189453125
283.85009765625 -309.176025390625 -16.29345703125
157.776123046875 -755.0604248046875 -25.315185546875
285.295654296875 20.1683349609375 100.9141845703125
371.755126953125 -726.9169311523438 -32.1204833984375
-446.19189453125 264.3695068359375 167.3670654296875
256.6168212890625 -612.003173828125 -11.501220703125
531.7293701171875 247.105224609375 73.2708740234375
32.114501953125 1005.2183837890625 293.2794189453125
-1095.023193359375 1805.1898193359375 72.6768798828125
-506.78564453125 -419.12359619140625 -130.630615234375
-772.459716796875 -778.0121459960938 -551.544189453125
-292.445556640625 502.68359375 171.8018798828125
482.5240478515625 359.7154541015625 29.7703857421875
167.0621337890625 -619.7578125 -11.9903564453125
390.95037841796875 228.337890625 73.22900390625
374.67626953125 -446.88531494140625 -13.4774169921875
229.5546875 209.6258544921875 123.5679931640625
152.690673828125 -808.7371826171875 -0.412841796875
323.56402587890625 301.01904296875 68.2933349609375
154.2359619140625 13.5419921875 155.1549072265625
522.0567016601562 -580.5087890625 -11.04638671875
-477.708984375 358.9635009765625 142.1646728515625
477.2991943359375 -669.853515625 -32.889892578125
249.88623046875 -718.8062133789062 -16.3062744140625
114.911376953125 -540.206298828125 18.3350830078125
-194.8896484375 509.3997802734375 199.4354248046875
-264.4857177734375 342.8240966796875 185.1046142578125
29.84814453125 -451.694091796875 17.931396484375
315.739990234375 -642.7330322265625 -20.12890625
408.09271240234375 234.0792236328125 68.4549560546875
35.14990234375 807.5496826171875 225.733642578125
397.69219970703125 -1781.241943359375 224.03228759765625
46.000244140625 -589.7869262695312 -21.7939453125
12.1141357421875 -387.851318359375 27.8553466796875
-171.05517578125 207.1231689453125 194.4825439453125
49.0335693359375 493.177734375 167.35302734375
153.924560546875 252.1302490234375 171.440185546875
139.912353515625 -620.7740478515625 -5.84814453125
28.771728515625 -310.968017578125 37.9642333984375
29.42333984375 -453.39788818359375 8.03466796875
511.66998291015625 361.8426513671875 -27.3096923828125
-122.1461181640625 504.01513671875 209.669189453125
-131.4429931640625 -350.5284423828125 62.3673095703125
-434.80810546875 483.9205322265625 175.6302490234375
442.4752197265625 -717.5341796875 -32.907470703125
-423.4150390625 -341.15533447265625 -54.164306640625
857.2550659179688 1095.6116943359375 -364.198486328125
538.67822265625 -574.8723754882812 -15.2296142578125
-439.099853515625 -349.6483154296875 -70.5740966796875
-287.9267578125 129.2447509765625 199.8826904296875
-91.652099609375 -439.2056884765625 60.9267578125
512.5123901367188 76.4765625 76.85546875
204.3863525390625 -802.0653076171875 2.680908203125
-1073.825927734375 1676.9522705078125 83.9139404296875
455.7718505859375 -661.1175537109375 -35.2662353515625
476.3416748046875 -705.4578857421875 -37.6343994140625
-417.8154296875 490.8331298828125 178.730712890625
61.580078125 -123.4483642578125 165.242919921875
-470.9171142578125 -365.36212158203125 -94.1490478515625
271.9049072265625 -764.5681762695312 -20.6817626953125
240.8385009765625 -618.04443359375 -11.960205078125
504.0782470703125 -693.365234375 -27.3818359375
70.8677978515625 -118.824462890625 172.361572265625
29.196533203125 -311.306640625 34.76171875
483.3505859375 -299.2457275390625 -38.1729736328125
-99.4658203125 545.6451416015625 200.346435546875
286.51123046875 -599.9161987304688 -6.5213623046875
-67.45703125 557.7264404296875 200.15869140625
-36.7938232421875 569.811279296875 203.260498046875
-438.3447265625 240.7642822265625 173.6990966796875
-24.2225341796875 574.3233642578125 201.693603515625
85.9324951171875 -571.6433715820312 -2.32763671875
-117.16015625 160.0986328125 204.676513671875
-3.204833984375 581.8883056640625 199.21142578125
179.1207275390625 -609.43017578125 -7.067138671875
22.6251220703125 593.986083984375 214.123291015625
48.34326171875 606.084228515625 229.3092041015625
183.5936279296875 -384.29754638671875 -33.529541015625
-502.60205078125 -490.34893798828125 -155.02294921875
93.251953125 -382.677490234375 -25.20361328125
214.2005615234375 -372.2125244140625 -30.290771484375
240.630126953125 -360.1163330078125 -16.8441162109375
268.5523681640625 -348.0240478515625 -7.044677734375
73.28271484375 -577.6929931640625 -10.431640625
300.5625 -335.94287109375 -7.2354736328125
275.60595703125 -777.922119140625 -15.2933349609375
305.3369140625 -334.173583984375 -7.4732666015625
333.84564208984375 -323.8651123046875 -10.5367431640625
362.2545166015625 -314.390380859375 -18.7059326171875
-715.62939453125 -807.7342529296875 -567.245849609375
419.582275390625 -711.2294921875 -29.3134765625
364.812255859375 44.289306640625 62.6654052734375
550.4806518554688 -675.239013671875 -23.7259521484375
-743.520263671875 -819.8265380859375 -577.121826171875
428.94195556640625 -616.7603759765625 -17.60009765625
-1987.999267578125 1338.7252197265625 132.9620361328125
-467.3944091796875 -436.58575439453125 -116.926025390625
370.5552978515625 -311.79638671875 -22.2110595703125
-690.639892578125 -973.8487548828125 -586.852294921875
402.328857421875 -302.05322265625 -36.8228759765625
307.140380859375 -715.4708251953125 -23.2030029296875
55.865478515625 460.984619140625 165.586181640625
-378.4453125 164.2003173828125 201.152587890625
1374.237548828125 197.890869140625 -295.1982421875
409.9583740234375 -299.7349853515625 -40.4677734375
445.89306640625 -288.17333984375 -53.513427734375
183.1953125 -75.1060791015625 180.1834716796875
447.3941650390625 -287.668212890625 -53.91650390625
-18.9833984375 476.4761962890625 169.4423828125
-56.528564453125 543.778564453125 188.5069580078125
-33.56396484375 567.481201171875 197.87841796875
-15.996826171875 552.9825439453125 170.5804443359375
12.8724365234375 561.0777587890625 182.3853759765625
-709.399658203125 -880.821044921875 -594.631103515625
-734.760986328125 -778.1596069335938 -552.4261474609375
302.6055908203125 -593.8758544921875 -6.8348388671875
483.9542236328125 -649.0260620117188 -26.1029052734375
190.803955078125 -413.92376708984375 -19.7518310546875
-763.219482421875 -790.2503662109375 -560.9146728515625
-924.298095703125 207.1785888671875 31.0703125
330.0684814453125 -759.8175048828125 -31.3338623046875
159.2314453125 -767.8597412109375 -15.0323486328125
505.2567138671875 -586.5472412109375 -9.0086669921875
429.584228515625 -358.834716796875 -24.5628662109375
447.2183837890625 -627.174072265625 -18.0965576171875
325.60845947265625 237.490234375 69.1995849609375
-366.19873046875 168.6864013671875 200.20654296875
238.197265625 -733.6416015625 -17.25830078125
1374.934814453125 198.1402587890625 -295.290771484375
418.144287109375 -501.232177734375 -24.9442138671875
-357.6585693359375 235.3585205078125 164.5244140625
78.5718994140625 -592.46875 -7.3907470703125
-1503.939697265625 244.5555419921875 -92.9453125
-106.2039794921875 130.5458984375 209.8348388671875
-126.515380859375 604.7646484375 202.5830078125
147.31103515625 -667.91943359375 -2.768798828125
524.6516723632812 -667.3145141601562 -20.8680419921875
461.739013671875 65.7689208984375 75.8699951171875
111.414794921875 -461.25048828125 -1.8485107421875
44.8953857421875 -309.745361328125 6.681884765625
446.702880859375 -454.919189453125 -18.49658203125
183.967529296875 -727.4149169921875 -22.2054443359375
79.099853515625 -556.86328125 -1.59716796875
266.981201171875 185.9764404296875 148.7723388671875
475.12432861328125 301.8948974609375 61.308349609375
1814.630126953125 224.8721923828125 -305.6519775390625
369.9501953125 -727.6363525390625 -32.3543701171875
39.513916015625 -610.6146240234375 -28.994140625
-319.92529296875 318.638671875 164.5169677734375
59.3790283203125 -304.966552734375 2.185546875
37.2462158203125 -135.5501708984375 146.67529296875
428.20867919921875 92.8780517578125 82.9881591796875
362.98046875 -747.7386474609375 -33.7281494140625
304.4609375 -593.2850341796875 -7.54736328125
-1594.316650390625 -58.7005615234375 -48.325927734375
41.44189453125 564.411865234375 200.072998046875
-45.937255859375 -385.47064208984375 73.3470458984375
288.5018310546875 -617.5884399414062 -14.0513916015625
-829.518310546875 -955.4932861328125 -574.69873046875
312.4080810546875 -608.663818359375 -14.82275390625
324.7767333984375 -604.2415771484375 -16.47314453125
480.866943359375 294.12158203125 55.6658935546875
-336.3765869140625 75.516845703125 194.1458740234375
329.6611328125 -602.6265869140625 -17.9677734375
6.26513671875 6.9610595703125 250.720458984375
345.5458984375 -596.585693359375 -17.769287109375
-216.082763671875 569.2569580078125 192.1917724609375
576.8753662109375 -598.0121459960938 -35.0413818359375
369.2066650390625 -587.2894287109375 -15.5615234375
454.0838623046875 80.5511474609375 78.6107177734375
285.8551025390625 58.1910400390625 122.1336669921875
191.0865478515625 -413.84112548828125 -19.9075927734375
58.6539306640625 191.6236572265625 201.5252685546875
406.5008544921875 -572.4149169921875 -10.6590576171875
420.7091064453125 -566.3695068359375 -6.363525390625
501.657470703125 -536.1688842773438 -9.094970703125
57.758544921875 -444.734375 -5.157470703125
104.695556640625 374.9344482421875 159.060546875
-142.19775390625 462.3785400390625 212.5689697265625
14.859375 10.5380859375 252.8076171875
131.39013671875 -675.097412109375 -1.6497802734375
149.456298828125 -426.82379150390625 -2.1553955078125
170.0234375 227.141845703125 159.080078125
255.053466796875 333.8333740234375 109.2266845703125
-387.30517578125 193.7474365234375 190.87109375
540.0076904296875 -610.0804443359375 -22.9810791015625
-352.25244140625 205.820556640625 183.245361328125
-336.5780029296875 210.8985595703125 177.779052734375
127.0386962890625 -553.5029296875 14.2705078125
479.096923828125 -544.0882568359375 -5.142578125
-315.5029296875 217.8890380859375 171.4737548828125
265.044189453125 250.59130859375 78.9039306640625
-261.897705078125 170.865478515625 182.3760986328125
-267.401123046875 236.101318359375 171.55712890625
304.0511474609375 263.28369140625 65.654541015625
146.798095703125 -325.15203857421875 -7.476806640625
91.8077392578125 -708.003662109375 -6.00537109375
314.108642578125 266.9029541015625 64.4615478515625
-197.45751953125 -306.4381103515625 62.7647705078125
-488.54296875 -337.0093994140625 -90.8206787109375
338.612060546875 275.358154296875 59.2310791015625
370.22479248046875 287.4404296875 60.01171875
397.961181640625 299.5330810546875 70.2647705078125
-77.26611328125 -29.3162841796875 220.747314453125
233.7086181640625 -431.3118896484375 -14.0982666015625
-287.4794921875 -54.8751220703125 124.3516845703125
413.2755126953125 -329.267333984375 -16.6417236328125
-347.900634765625 306.5465087890625 154.8475341796875
441.4583740234375 -319.2515869140625 -20.7916259765625
173.9644775390625 300.83544921875 179.5872802734375
447.128173828125 -317.1910400390625 -21.3341064453125
-133.4959716796875 533.5692138671875 205.47265625
18.351318359375 -327.970458984375 64.844482421875
504.400390625 300.3936767578125 38.7877197265625
383.56097412109375 16.255126953125 58.6551513671875
320.018310546875 -587.8389892578125 -10.3699951171875
144.4610595703125 -362.72857666015625 -21.5211181640625
-1.356201171875 -422.924072265625 56.8841552734375
365.3857421875 -599.9161987304688 -17.1112060546875
303.37890625 -47.0924072265625 129.4202880859375
297.048583984375 23.2640380859375 92.25
12.708740234375 -568.1395263671875 -23.4571533203125
-291.3140869140625 330.72900390625 172.6322021484375
66.9483642578125 137.0550537109375 273.984375
551.576904296875 -1892.770751953125 241.74359130859375
515.1072998046875 -636.9424438476562 -24.198486328125
75.8172607421875 -540.2406005859375 2.337158203125
-148.72802734375 -61.7801513671875 185.9444580078125
182.79052734375 369.535888671875 156.2178955078125
-184.146484375 236.6817626953125 194.541015625
31.9293212890625 -560.2257080078125 -19.34130859375
45.67724609375 -554.178955078125 -13.9208984375
59.57177734375 -548.1326904296875 -8.8583984375
-324.75732421875 7.2728271484375 148.3372802734375
304.142578125 -596.57666015625 -7.6739501953125
72.37158203125 -542.08349609375 -1.121337890625
405.8199462890625 -608.28955078125 -17.8070068359375
-449.8292236328125 -346.48480224609375 -74.9681396484375
-86.32421875 729.7286376953125 242.6695556640625
373.2742919921875 -1722.12939453125 219.837890625
214.5062255859375 411.1412353515625 124.8145751953125
142.3609619140625 -636.9398193359375 -4.828369140625
170.546142578125 -661.665771484375 -10.5186767578125
468.0289306640625 86.5972900390625 83.5491943359375
135.82958984375 43.1148681640625 168.2020263671875
448.8807373046875 -589.885009765625 -4.2581787109375
1561.439453125 128.2144775390625 -311.1925048828125
-194.665771484375 -103.9058837890625 132.6898193359375
-119.168212890625 403.2698974609375 220.15631103515625
-1250.328369140625 276.9207763671875 -58.2041015625
165.713134765625 -734.2364501953125 -21.6607666015625
220.3583984375 -63.0386962890625 167.4005126953125
-23.978759765625 -465.4217529296875 60.5013427734375
-691.907958984375 -850.503662109375 -579.0242919921875
-318.690185546875 389.849365234375 175.6669921875
380.57928466796875 -708.506591796875 -28.0260009765625
418.0650634765625 -708.79052734375 -28.2392578125
181.982177734375 -728.196533203125 -22.4007568359375
165.6611328125 -700.4542236328125 -12.4752197265625
193.367919921875 235.041259765625 153.097412109375
-667.971435546875 -990.31884765625 -577.5579833984375
-134.087158203125 -279.3074951171875 82.99755859375
-39.32177734375 712.2462158203125 237.7745361328125
-76.974365234375 385.80029296875 227.01190185546875
-321.98974609375 52.42529296875 183.9227294921875
145.4349365234375 -497.0999755859375 -0.550048828125
-409.431396484375 152.1163330078125 198.84033203125
-168.87109375 -87.6837158203125 143.2276611328125
344.96539306640625 349.537109375 76.9979248046875
428.60260009765625 224.1241455078125 76.8587646484375
-239.82080078125 455.662353515625 185.0999755859375
153.0987548828125 -633.465087890625 -8.5985107421875
90.003173828125 -550.8089599609375 10.7757568359375
422.5272216796875 -707.0825805664062 -28.11279296875
348.3978271484375 203.4490966796875 113.065185546875
241.2183837890625 -739.6282348632812 -18.1749267578125
119.32177734375 -538.720458984375 17.1624755859375
452.01708984375 -696.5913696289062 -33.3079833984375
97.6796875 -273.274658203125 10.99072265625
241.5390625 -704.0220947265625 -11.87451171875
-4.5799560546875 -423.783203125 59.1966552734375
277.182373046875 -448.784912109375 -10.3702392578125
-322.479736328125 4.2657470703125 146.01708984375
389.27593994140625 -771.2491455078125 -27.037841796875
377.0576171875 -15.7376708984375 90.5313720703125
-751.662353515625 -623.5189208984375 -404.754638671875
542.8170166015625 311.998046875 19.9931640625
35.56640625 -331.1175537109375 2.8878173828125
353.7003173828125 317.008056640625 68.4603271484375
44.7822265625 -329.73291015625 -10.59375
140.946533203125 -548.6343994140625 11.7471923828125
336.3216552734375 -722.5651245117188 -28.8701171875
303.685302734375 -342.169921875 -8.140380859375
8.2464599609375 3.0440673828125 250.10968017578125
43.4913330078125 427.6824951171875 160.5589599609375
61.5096435546875 -477.5726318359375 -3.58642578125
19.4083251953125 481.090087890625 161.7156982421875
250.845458984375 -700.5391845703125 -12.118896484375
-20.708740234375 -435.9588623046875 66.2303466796875
-60.30419921875 599.3978271484375 228.78070068359375
-468.283447265625 -434.57525634765625 -116.9254150390625
471.3026123046875 -655.07568359375 -34.2022705078125
-174.528564453125 35.1807861328125 206.5653076171875
368.6334228515625 123.9031982421875 121.4332275390625
314.44580078125 103.4713134765625 121.8814697265625
93.1229248046875 -464.841552734375 1.353759765625
-36.019775390625 -470.05523681640625 60.002197265625
-79.5777587890625 -183.9051513671875 120.02685546875
-54.9178466796875 -174.431396484375 120.94921875
155.54638671875 -339.9371337890625 -12.8883056640625
-759.043212890625 -748.5709838867188 -525.02001953125
135.264404296875 -329.6082763671875 -8.0697021484375
345.46490478515625 115.55517578125 124.11279296875
74.0208740234375 -40.1005859375 227.042724609375
312.7666015625 -537.4508056640625 -1.5311279296875
286.335693359375 -564.3087158203125 0.991943359375
-160.487060546875 -362.61761474609375 55.309326171875
270.1217041015625 -419.2425537109375 -25.04833984375
-296.795654296875 70.234619140625 194.212890625
285.596923828125 -687.86572265625 -15.1629638671875
87.058837890625 -111.3494873046875 181.0140380859375
257.89453125 -697.9823608398438 -12.826171875
-158.3946533203125 663.8970947265625 216.6220703125
15.5650634765625 -457.70166015625 46.595458984375
536.4111938476562 -524.094970703125 -15.989501953125
-160.91748046875 662.6373291015625 214.6636962890625
116.8272705078125 -99.2623291015625 186.3013916015625
98.2984619140625 -565.5929565429688 6.470458984375
-293.6065673828125 -238.9774169921875 64.8870849609375
-730.24072265625 -700.2673950195312 -465.3480224609375
92.07666015625 -586.4214477539062 -1.3760986328125
111.535400390625 -559.544921875 13.139404296875
150.8505859375 256.7166748046875 174.000732421875
144.30419921875 -547.4656982421875 11.09521484375
-183.40966796875 479.8453369140625 203.3140869140625
110.54345703125 -359.74169921875 -18.15283203125
380.7608642578125 127.627685546875 115.8931884765625
103.953369140625 -615.9769287109375 1.53271484375
160.880859375 -541.4266357421875 9.60302734375
-486.068115234375 -335.7979736328125 -89.0567626953125
175.92236328125 -535.8617553710938 8.7945556640625
158.869384765625 -344.906005859375 -15.6446533203125
-412.52099609375 -360.69342041015625 -59.6854248046875
-943.224609375 64.8011474609375 48.985107421875
136.8385009765625 -603.8980102539062 -0.7955322265625
-423.2459716796875 -174.945556640625 39.2293701171875
203.8681640625 -508.94866943359375 2.9495849609375
35.0137939453125 -400.3551025390625 2.7376708984375
-214.5706787109375 52.644775390625 194.4512939453125
228.9654541015625 286.4549560546875 133.1055908203125
243.034423828125 281.201904296875 104.3660888671875
380.13067626953125 -14.7987060546875 89.0963134765625
-411.84765625 -257.8499755859375 9.482177734375
-668.194091796875 -695.4627075195312 -439.9627685546875
1531.473876953125 531.2451171875 -309.0206298828125
28.8648681640625 -469.376953125 17.54833984375
336.56414794921875 0.857666015625 73.9425048828125
10.9337158203125 -513.8932495117188 27.5106201171875
10.684814453125 -368.545654296875 44.5006103515625
154.0504150390625 424.63916015625 136.800048828125
-104.768798828125 29.804443359375 224.0911865234375
426.6749267578125 210.8856201171875 95.8936767578125
-43.2696533203125 -29.59375 229.0643310546875
-103.6990966796875 -41.4124755859375 207.308837890625
16.92431640625 -371.16607666015625 12.5543212890625
205.234130859375 -508.533203125 2.2999267578125
87.393798828125 -657.623046875 -4.100830078125
23.7149658203125 -370.853515625 -1.9183349609375
169.8807373046875 -679.208251953125 -10.771728515625
444.98883056640625 152.279296875 118.1453857421875
-39.9713134765625 297.130615234375 232.3839111328125
-233.349365234375 103.2725830078125 185.6373291015625
118.11669921875 -645.5383911132812 -1.1458740234375
1434.7783203125 -264.0174560546875 -306.6109619140625
224.423095703125 -502.5010986328125 -5.57568359375
47.51708984375 -365.70989990234375 -26.686279296875
271.0445556640625 -641.5653076171875 -14.825927734375
82.9534912109375 546.9444580078125 208.5966796875
-318.677001953125 6.454345703125 150.8262939453125
549.9127197265625 -509.8057861328125 -21.26513671875
-457.576416015625 -283.4444580078125 -43.7052001953125
-1021.544921875 1558.7181396484375 83.8839111328125
274.224365234375 -691.942626953125 -13.714599609375
1695.1298828125 492.011474609375 -302.2166748046875
-384.84033203125 258.5560302734375 157.9769287109375
52.809326171875 -568.9598388671875 -15.383056640625
-21.549560546875 -5.1314697265625 240.6580810546875
-1.1964111328125 -387.1656494140625 56.91015625
284.8856201171875 -561.644775390625 1.6585693359375
335.7130126953125 -579.6542358398438 -12.0247802734375
-6.6552734375 -459.3846435546875 57.1842041015625
-530.82958984375 -490.526611328125 -176.9615478515625
280.138916015625 -659.7320556640625 -17.4273681640625
166.6263427734375 428.6260986328125 131.8541259765625
-523.71044921875 -502.4593505859375 -181.472900390625
22.8978271484375 -417.77337646484375 31.06591796875
52.87353515625 202.153564453125 199.1483154296875
346.53546142578125 -666.304931640625 -24.752197265625
18.0679931640625 -337.7176513671875 47.488037109375
-360.1893310546875 -269.5096435546875 30.6343994140625
-66.238525390625 356.2479248046875 232.70904541015625
-831.7919921875 -738.761474609375 -506.862060546875
360.4727783203125 -661.7562255859375 -29.39794921875
-26.4530029296875 1181.1866455078125 337.43798828125
344.05517578125 152.9129638671875 145.8460693359375
116.09716796875 -611.364501953125 1.647216796875
166.494384765625 -697.9534912109375 -12.1368408203125
-1938.144287109375 1220.4976806640625 138.8597412109375
384.87188720703125 -634.892822265625 -26.9554443359375
419.55078125 -5.1490478515625 73.4061279296875
408.357666015625 -386.16375732421875 -34.263427734375
257.561767578125 -733.5885009765625 -19.096923828125
21.57568359375 -329.234375 48.9141845703125
200.623291015625 -615.3419189453125 -7.6851806640625
-875.315185546875 -919.8912963867188 -551.6314697265625
247.8341064453125 -526.6981811523438 3.70947265625
-352.028076171875 -109.9818115234375 68.3013916015625
-17.38623046875 -13.6065673828125 239.638671875
391.433349609375 -649.6721801757812 -27.0238037109375
377.254150390625 -655.414306640625 -29.44482421875
81.7822265625 102.3067626953125 236.4134521484375
-210.3466796875 639.7022705078125 187.5113525390625
283.5523681640625 -637.0247802734375 -16.0555419921875
17.4071044921875 -508.93878173828125 12.9031982421875
406.61444091796875 -643.6292724609375 -25.10498046875
-164.220703125 349.5330810546875 206.1170654296875
-768.249267578125 -1066.393798828125 -549.5047607421875
398.7037353515625 -593.2393188476562 -14.655517578125
383.8846435546875 257.88037109375 58.5631103515625
-733.968505859375 -736.47119140625 -508.2618408203125
15.0035400390625 350.1883544921875 217.9913330078125
444.260498046875 38.886962890625 56.5155029296875
430.4007568359375 -360.0263671875 -25.271728515625
452.1019287109375 -696.7147216796875 -33.3822021484375
-242.853759765625 -214.779296875 96.9281005859375
490.772705078125 -663.80615234375 -26.7989501953125
92.5760498046875 -555.1831665039062 9.2115478515625
-156.0882568359375 -65.6060791015625 179.2667236328125
-119.4320068359375 -238.89013671875 94.619873046875
78.9544677734375 -678.4457397460938 -6.5279541015625
-309.267822265625 188.3489990234375 188.1693115234375
32.17138671875 -453.69500732421875 1.6329345703125
1507.901611328125 246.4520263671875 -308.09130859375
425.1434326171875 -430.036865234375 -27.879150390625
21.8160400390625 -357.891845703125 14.54150390625
108.57666015625 -555.274658203125 15.7593994140625
150.613525390625 -592.2490234375 -1.5003662109375
-480.989013671875 -407.02569580078125 -115.63720703125
-1022.1552734375 87.30126953125 35.3758544921875
125.8992919921875 -589.10693359375 9.9705810546875
48.5179443359375 -346.62786865234375 -17.3739013671875
87.1859130859375 -349.326416015625 -17.8680419921875
-1031.59375 97.6458740234375 31.5020751953125
497.0186767578125 101.4615478515625 87.7388916015625
318.2198486328125 -365.513671875 -18.4525146484375
313.8917236328125 379.0504150390625 98.7520751953125
149.7742919921875 -360.76702880859375 -21.8336181640625
1.77587890625 -474.1689453125 52.5469970703125
16.5830078125 -360.0262451171875 29.653564453125
-330.98095703125 -28.7447509765625 111.32763671875
-204.76904296875 365.3294677734375 197.0452880859375
560.2808837890625 -654.4200439453125 -24.62451171875
-433.0810546875 -269.9154052734375 -16.3751220703125
203.852294921875 -658.8314208984375 -14.1436767578125
524.504638671875 182.0526123046875 116.1494140625
211.8099365234375 -637.664794921875 -10.9102783203125
473.1383056640625 -563.021240234375 -1.4693603515625
307.69970703125 -715.280517578125 -23.3394775390625
-232.060546875 -172.991455078125 117.463134765625
-61.1329345703125 -497.9134521484375 49.756103515625
291.318359375 -478.2821044921875 -13.0516357421875
458.57037353515625 44.93212890625 60.5626220703125
1489.020751953125 -382.25689697265625 -311.4345703125
171.9927978515625 -45.5526123046875 175.6268310546875
281.81591796875 -672.2889404296875 -16.727294921875
296.0889892578125 -614.70361328125 -13.960205078125
215.7982177734375 -609.2990112304688 -5.7515869140625
193.32568359375 -824.0782470703125 -1.0186767578125
-1488.738525390625 250.2066650390625 -93.5882568359375
256.8983154296875 -387.3072509765625 -27.2366943359375
107.615478515625 -737.569580078125 -12.7025146484375
-334.86474609375 -221.5103759765625 55.7445068359375
229.690185546875 83.8079833984375 168.126953125
379.21044921875 -706.0917358398438 -27.288818359375
-509.2994384765625 346.8812255859375 141.3297119140625
213.5234375 -521.9285888671875 6.9150390625
118.297607421875 -607.200927734375 2.543212890625
365.11614990234375 -747.0216064453125 -34.3114013671875
443.629638671875 -537.5559692382812 -2.412353515625
-347.1826171875 142.59619140625 208.016845703125
35.0987548828125 -308.599365234375 19.9228515625
539.6436157226562 339.7127685546875 -15.8382568359375
0.8359375 439.4493408203125 161.0001220703125
24.0010986328125 -464.0325927734375 32.8033447265625
197.418701171875 -684.0267333984375 -16.7486572265625
-162.795654296875 -178.4927978515625 135.3885498046875
-718.044921875 -753.036376953125 -529.30419921875
389.3826904296875 380.2529296875 95.140380859375
312.0028076171875 -685.7850341796875 -21.6109619140625
431.82012939453125 384.4189453125 77.99951171875
-370.7542724609375 -334.21978759765625 -8.1204833984375
481.1622314453125 124.6712646484375 101.4300537109375
379.1844482421875 14.727294921875 59.476318359375
-407.317138671875 424.7998046875 172.3148193359375
-462.6318359375 471.8280029296875 165.590087890625
18.0621337890625 821.0938720703125 253.22869873046875
576.353271484375 -526.7967529296875 -19.59765625
105.2421875 -773.170166015625 -13.9871826171875
143.252685546875 -742.724609375 -21.5986328125
171.3177490234375 -562.5728149414062 6.9395751953125
361.3223876953125 -626.1514892578125 -24.39013671875
-309.084716796875 -209.4124755859375 70.7786865234375
196.4210205078125 -443.3790283203125 -1.01123046875
120.4832763671875 -767.1275634765625 -12.2152099609375
-92.9150390625 480.3416748046875 208.1890869140625
-402.135498046875 285.4068603515625 150.8699951171875
-7.255615234375 540.2083740234375 163.0101318359375
520.7621459960938 -651.7194213867188 -22.051025390625
368.63836669921875 -762.515625 -31.588134765625
-45.773193359375 -492.2919921875 51.6932373046875
42.9876708984375 -339.71783447265625 -11.317138671875
12.168212890625 -419.63470458984375 45.1636962890625
-60.8914794921875 -498.3350830078125 49.6214599609375
381.84552001953125 -412.5643310546875 -32.037353515625
376.78662109375 -656.28271484375 -29.63525390625
1670.29833984375 220.04541015625 -312.0797119140625
199.88916015625 246.9736328125 155.7529296875
-894.756591796875 -835.5899047851562 -532.5218505859375
-14.9215087890625 -480.2076416015625 54.3343505859375
224.137939453125 180.1168212890625 168.7371826171875
-16.0738525390625 -392.244384765625 68.0789794921875
232.2706298828125 -603.2596435546875 -6.98876953125
232.197021484375 -638.866455078125 -13.89306640625
173.84619140625 -749.02001953125 -25.5693359375
118.64501953125 -372.85064697265625 -23.7958984375
366.793701171875 -49.3929443359375 120.8704833984375
164.38818359375 -113.1236572265625 176.1229248046875
-35.5206298828125 196.3809814453125 239.27197265625
7.442138671875 795.3006591796875 214.40869140625
267.8497314453125 15.7347412109375 114.8121337890625
188.496826171875 -742.9757080078125 -22.3543701171875
528.7587280273438 276.4669189453125 48.78173828125
406.20263671875 -607.4322509765625 -17.6513671875
1690.260498046875 454.0684814453125 -304.1676025390625
976.9022216796875 1143.9593505859375 -344.44873046875
-348.240234375 448.9755859375 184.013671875
489.7681884765625 113.4678955078125 92.4923095703125
-116.293212890625 -110.3197021484375 130.265625
1302.820556640625 719.3778076171875 -317.8494873046875
174.9791259765625 -553.52685546875 8.4278564453125
429.90869140625 -585.690185546875 -7.974365234375
442.00274658203125 -524.7359619140625 -12.2979736328125
64.77978515625 -286.6834716796875 14.7935791015625
-126.62548828125 -166.4227294921875 125.0323486328125
572.3453369140625 377.9083251953125 -71.5030517578125
39.146484375 -467.52105712890625 4.5025634765625
481.8533935546875 -580.4187622070312 -3.9747314453125
56.8905029296875 -462.149658203125 -4.1036376953125
-301.7919921875 431.494384765625 180.473388671875
70.109375 -81.7806396484375 190.5008544921875
496.14837646484375 -608.232666015625 -15.345703125
265.8770751953125 -712.7655029296875 -16.3665771484375
177.1961669921875 -535.3868408203125 8.749755859375
11.812744140625 -58.84912109375 217.134521484375
29.4814453125 -385.55242919921875 0.4573974609375
-12.133544921875 -484.857177734375 52.541748046875
189.278076171875 21.8218994140625 151.65771484375
-349.2587890625 -191.9483642578125 58.9874267578125
235.2685546875 16.5972900390625 135.98095703125
-332.83984375 -150.3017578125 64.9649658203125
120.1494140625 -353.538330078125 -14.2286376953125
-424.1295166015625 555.10595703125 163.703369140625
273.1126708984375 32.90380859375 116.947021484375
-92.065185546875 -154.3482666015625 118.6099853515625
150.415283203125 -495.39306640625 -1.687744140625
116.030029296875 378.7135009765625 155.794189453125
116.478271484375 -681.1409912109375 -4.225830078125
-260.591064453125 204.615478515625 174.3785400390625
-312.001708984375 461.0455322265625 173.4906005859375
476.1080322265625 -412.80224609375 -41.0120849609375
59.041015625 470.9827880859375 166.8746337890625
-396.20947265625 332.992919921875 153.242919921875
366.3148193359375 -676.5335693359375 -27.7081298828125
46.5458984375 830.2083740234375 264.8746337890625
169.514404296875 -627.6253662109375 -10.9781494140625
379.577880859375 -671.6353759765625 -28.4761962890625
-485.2125244140625 -337.3629150390625 -89.4576416015625
451.843505859375 -679.563720703125 -33.397705078125
135.431640625 -568.320556640625 9.511962890625
-368.6966552734375 -388.18206787109375 -45.9825439453125
382.60400390625 -670.4937744140625 -28.49755859375
149.856201171875 -740.2774658203125 -21.9276123046875
-902.113037109375 148.0721435546875 40.72119140625
377.53857421875 -620.1114501953125 -25.001220703125
120.9573974609375 244.6297607421875 169.0179443359375
-193.517822265625 -54.47265625 167.6077880859375
-206.2374267578125 -161.0198974609375 131.5821533203125
462.06591796875 323.6954345703125 69.677734375
-293.36181640625 -43.7757568359375 126.7384033203125
425.576904296875 -653.9896240234375 -26.9232177734375
179.43115234375 -778.4758911132812 -6.754638671875
331.44427490234375 26.9921875 71.8187255859375
204.99365234375 -649.126708984375 -13.6871337890625
-187.893798828125 580.5950927734375 196.507568359375
445.64959716796875 -646.32861328125 -26.4964599609375
82.2696533203125 124.4573974609375 211.262939453125
106.8641357421875 -323.7838134765625 -2.4466552734375
244.534423828125 -634.3360595703125 -14.77392578125
133.803955078125 -366.8077392578125 -21.8233642578125
-48.411865234375 460.14013671875 191.920166015625
261.45263671875 -50.9818115234375 145.01171875
-847.6376953125 1203.9700927734375 42.09326171875
-119.97314453125 -237.654541015625 94.6077880859375
493.3128662109375 329.9886474609375 34.218017578125
-94.8004150390625 -225.5550537109375 111.1259765625
163.128662109375 -834.9671020507812 2.41943359375
-479.200927734375 -294.1258544921875 -59.738037109375
-69.68408203125 -213.4552001953125 127.781982421875
260.5078125 -490.4307861328125 -15.7227783203125
-41.830810546875 -203.1424560546875 126.336181640625
208.5155029296875 -594.5177612304688 -3.9208984375
160.18896484375 -575.3580322265625 2.3995361328125
-35.8779296875 -201.3787841796875 123.202392578125
135.52783203125 -568.287353515625 9.4915771484375
-1.820556640625 -190.8336181640625 108.1929931640625
370.05145263671875 -517.9229736328125 -15.2919921875
176.626220703125 -534.40380859375 9.0809326171875
273.9791259765625 -727.5489501953125 -20.19970703125
234.76708984375 -742.1435546875 -18.6527099609375
476.7181396484375 -376.31744384765625 -29.778564453125
148.0626220703125 -669.05859375 -3.37548828125
-310.7705078125 -66.979736328125 103.2354736328125
-306.9798583984375 -138.2039794921875 79.8037109375
53.86328125 -165.1181640625 138.0003662109375
-326.4912109375 -37.4141845703125 109.7198486328125
35.2611083984375 807.5679931640625 225.77911376953125
208.009033203125 -516.9851684570312 4.6529541015625
539.2603759765625 -573.6190185546875 -14.99267578125
232.2216796875 -92.593994140625 170.3424072265625
-205.2371826171875 282.16748046875 196.9449462890625
-17.12841796875 -337.773681640625 88.0638427734375
444.233642578125 -681.931884765625 -30.120361328125
406.518310546875 -608.02197265625 -17.7861328125
475.306640625 -634.2410888671875 -20.936767578125
412.974609375 -658.4080810546875 -24.6810302734375
46.08349609375 220.496337890625 195.9215087890625
-807.24658203125 -1014.6403198242188 -565.519775390625
91.7249755859375 588.6112060546875 233.2620849609375
23.88720703125 950.0528564453125 281.881103515625
-449.7728271484375 -241.6995849609375 -6.0550537109375
563.4814453125 -1910.9078369140625 244.055419921875
171.7388916015625 -643.89013671875 -10.050048828125
166.041015625 -354.7271728515625 -22.5682373046875
29.3392333984375 -462.1756591796875 17.7344970703125
323.645751953125 -745.03857421875 -31.6048583984375
-65.564697265625 -349.33331298828125 82.2818603515625
-90.73046875 728.1619873046875 243.3134765625
333.27020263671875 33.8980712890625 72.558349609375
508.1807861328125 -1875.2979736328125 237.82586669921875
621.2510986328125 998.9078369140625 -411.73779296875
493.3431396484375 -405.885498046875 -38.4730224609375
60.4671630859375 -460.78509521484375 -4.0313720703125
1497.9052734375 934.2855224609375 -298.0443115234375
1616.83154296875 982.6348876953125 -276.5333251953125
138.548583984375 39.5723876953125 165.38134765625
315.429443359375 -730.2548828125 -27.4925537109375
204.77685546875 -550.6425170898438 3.3673095703125
-280.4779052734375 -13.203369140625 153.3428955078125
-93.9029541015625 583.39453125 207.6717529296875
104.465087890625 -651.0032958984375 -3.0692138671875
166.629638671875 -663.02490234375 -9.7315673828125
514.8102416992188 -601.3346557617188 -16.388671875
1487.26953125 -244.69091796875 -310.0313720703125
131.054931640625 -331.193359375 -8.0213623046875
223.5399169921875 -588.4744873046875 -1.61962890625
316.642578125 -536.1549682617188 -2.6251220703125
15.8046875 -402.99261474609375 32.43359375
-1627.193359375 1199.0015869140625 131.589599609375
-21.746826171875 201.3343505859375 237.618408203125
271.8330078125 -605.96044921875 -9.668701171875
144.969482421875 -492.93231201171875 -3.9189453125
-215.352783203125 396.550048828125 189.171630859375
270.5 -423.2574462890625 -21.6312255859375
307.638671875 194.8465576171875 130.8978271484375
227.595703125 -517.2713623046875 2.6378173828125
527.1788940429688 -666.498291015625 -21.765625
-739.042724609375 -991.7902221679688 -584.4683837890625
72.4866943359375 -355.3704833984375 -20.9637451171875
1063.07763671875 495.807861328125 -284.8466796875
351.0936279296875 -579.3421020507812 -12.725830078125
1087.9749755859375 504.523193359375 -289.3648681640625
147.9400634765625 -738.0155029296875 -19.6856689453125
117.0614013671875 -799.2509765625 -7.095458984375
65.078857421875 53.5621337890625 238.8084716796875
956.3218994140625 859.1580810546875 -350.8306884765625
-150.044677734375 -249.7410888671875 90.0606689453125
341.951416015625 -32.7110595703125 110.6864013671875
-415.623291015625 313.940673828125 145.3193359375
1352.844482421875 601.149658203125 -312.3642578125
520.89794921875 -293.0546875 -45.5404052734375
1479.5799560546875 649.4781494140625 -309.936279296875
-13.430908203125 -344.561767578125 86.359375
-708.863525390625 -724.83642578125 -491.0755615234375
1603.387939453125 697.8145751953125 -300.354248046875
-304.113037109375 360.2867431640625 171.9764404296875
124.041748046875 -490.15185546875 -1.4822998046875
270.11474609375 93.29443359375 150.1563720703125
268.9031982421875 192.1639404296875 137.3775634765625
867.333251953125 1074.0943603515625 -365.5828857421875
0.978271484375 -438.55975341796875 61.5799560546875
289.824462890625 125.5999755859375 158.1864013671875
153.7530517578125 -526.645751953125 11.0550537109375
528.4814453125 276.542724609375 48.668212890625
488.8018798828125 57.01806640625 64.7183837890625
307.3448486328125 111.224365234375 130.869384765625
