428 310 76
129 -307 0
2053 321 -265
468 -551 -1
-85 516 197
-75 702 252
-52 528 181
1387 -72 -289
-894 -835 -532
34 522 170
-29 532 165
-7 540 163
1151 1074 -330
-875 -919 -551
845 951 -374
1388 1171 -290
171 -673 -10
1507 1219 -265
1550 816 -299
214 381 157
1623 1267 -235
1736 1315 -199
-254 0 177
42 -382 -14
62 -377 -23
104 96 186
94 -380 -25
534 -289 -49
1670 863 -280
557 -196 -61
106 -365 -21
267 89 149
8 -367 60
16 -364 22
17 -371 9
-1097 -1574 -354
108 -339 -6
-322 5 148
-233 106 185
1136 386 -280
-198 449 199
85 232 171
466 357 57
92 214 180
153 252 171
199 246 155
-696 -908 -595
263 255 77
1337 1573 -232
-1 753 194
-1462 -1089 -350
-904 -838 -527
58 534 190
-116 -87 164
300 -561 0
398 -538 -5
425 -526 -8
1202 955 -328
109 -595 6
107 376 158
172 -558 7
909 977 -364
199 -586 -3
125 -589 9
153 -583 0
-1099 -1171 -420
179 -313 -9
128 114 197
145 -561 8
18 821 253
-30 -272 96
-247 143 185
-103 -272 93
-331 454 179
-185 165 183
-157 177 192
-349 -191 58
-95 100 215
-108 199 210
-75 213 227
17 -262 47
267 -519 0
-67 557 200
58 -278 28
-24 574 201
-61 109 229
78 262 163
-91 1583 375
219 -616 -6
1222 552 -306
134 286 182
2158 689 -190
209 313 159
230 315 133
-127 -95 140
289 332 89
339 345 76
1718 784 -280
368 358 77
397 370 85
14 559 181
-12 816 240
479 368 27
239 -694 -10
-717 -769 -545
506 426 -62
1930 1186 -170
-718 -753 -529
1312 717 -317
-598 -704 -411
-723 -728 -496
-61 771 227
264 359 112
-686 -745 -520
7 795 214
1030 1025 -347
56 819 252
-102 1672 357
47 161 257
-556 -766 -463
15 -385 18
-134 361 212
1039 1310 -313
467 -629 -19
61 163 237
32 -396 4
611 -1753 237
-174 35 206
-868 -598 -418
182 369 156
-57 83 232
1346 -86 -281
-30 95 243
141 217 166
-3 107 257
21 119 273
51 131 278
66 137 273
100 173 205
87 140 247
-332 -150 64
265 -420 -23
270 -419 -25
444 152 118
305 -407 -32
-229 -101 123
-176 -77 151
-155 658 216
-322 247 156
-299 16 167
268 192 137
36 19 255
325 209 102
1619 1559 -178
-181 312 210
1434 -264 -306
-153 319 211
105 31 164
0 -237 74
150 48 170
-10 -269 70
199 67 168
510 239 75
-36 369 229
-2 376 210
1374 199 -295
-493 -448 -130
47 388 162
-1187 -1338 -389
59 392 159
377 133 124
413 139 114
-191 -190 127
96 -271 11
-162 -178 135
-65 1548 356
-127 -165 125
-92 -154 118
133 -367 -21
-62 -142 123
150 -494 -2
270 -423 -21
-768 -1066 -549
346 -424 -24
240 -360 -16
123 -60 194
249 214 107
133 -57 192
574 714 -354
-36 1423 368
139 -276 -2
-566 -534 -224
1733 1600 -136
236 -27 136
301 -665 -18
1117 243 -262
124 -490 -1
-800 -804 -563
382 16 58
-604 -543 -252
221 -831 -10
279 -810 -10
-201 18 200
1271 1122 -311
63 110 272
82 124 211
-48 1509 323
61 -472 -3
444 350 76
348 203 113
-317 45 181
389 212 95
-129 -56 194
417 205 103
-76 -32 220
1322 316 -296
-199 -93 133
-323 117 207
201 -669 -15
38 420 159
-288 59 189
283 -663 -18
-26 1181 337
138 39 165
217 35 152
150 -426 -2
1361 330 -300
227 -401 -31
193 235 153
288 -377 -24
878 241 -222
706 762 -365
361 370 83
445 282 64
-88 1613 381
331 -294 -37
-292 502 171
-272 28 180
29 559 190
504 300 38
-354 106 204
59 256 167
-118 717 243
-284 124 199
72 -194 125
-307 87 200
-794 -505 -428
-48 741 227
124 -260 14
614 331 -34
276 -550 4
123 -661 0
479 -189 -53
524 182 116
-1795 -1005 -354
-239 455 185
831 810 -358
410 -268 -66
137 -654 0
1014 1361 -305
227 -811 -10
-81 314 224
468 -447 -23
2161 226 -249
1893 950 -224
331 -585 -14
207 115 193
492 358 0
-428 -354 -67
438 -549 0
-147 392 212
1483 1555 -209
373 -599 -17
-39 711 237
450 -538 -1
-64 184 230
235 243 101
-100 511 204
117 -150 153
619 -1793 241
113 -246 34
-531 -427 -145
145 -689 -3
-9 -230 90
122 -607 2
139 -155 147
1167 -12 -235
-84 450 211
71 -280 17
1935 273 -289
-123 80 212
18 -327 63
-1216 -1072 -388
305 -589 -6
-1108 -749 -344
-1014 -719 -386
250 -753 -20
-216 153 182
-2 721 208
435 54 63
138 -132 166
75 764 173
511 361 -27
1080 159 -246
101 102 187
-502 -428 -130
-379 -136 56
195 -761 -18
155 -230 51
238 -723 -17
-16 967 269
307 -628 -20
317 -571 -1
274 -578 -2
70 -81 190
-173 135 187
-1266 -1504 -381
-19 -393 70
343 -677 -24
1428 767 -311
-2 -331 90
956 859 -350
133 215 170
-598 -467 -212
27 -332 25
1328 1858 -178
-600 -733 -455
73 -507 0
-1656 -1262 -418
1348 462 -306
268 -348 -7
-36 1389 368
415 -599 -14
110 -99 187
182 268 173
-1332 504 -22
529 361 -36
1146 118 -250
170 227 159
697 279 -85
-56 462 197
914 171 -233
325 -533 -4
214 -301 -17
576 -1687 228
503 63 68
467 84 82
1713 602 -294
268 286 80
17 -469 46
-173 287 209
-348 448 184
-263 -298 53
-1547 -1206 -381
1286 31 -270
420 -499 -25
2168 369 -232
379 -16 90
30 -350 0
-312 461 173
1237 149 -271
-88 727 243
324 299 67
-1336 -1671 -393
303 370 94
-321 -31 116
1159 1358 -293
-279 473 173
322 -557 -1
570 378 -71
368 288 59
-41 -203 126
-180 -261 87
-202 -51 163
-907 -612 -402
287 -745 -24
176 -747 -25
354 -454 -10
378 -341 -12
246 -804 -6
-128 523 207
-76 385 227
298 -785 -14
-1 406 176
449 -731 -37
11 409 166
558 -280 -59
-221 59 192
306 -517 -6
493 -506 -21
448 -488 -24
35 -330 2
170 295 181
243 280 102
1652 -70 -319
1809 864 -255
-35 1210 328
299 -508 -10
251 -288 -30
520 394 -58
241 -826 -12
-14 137 251
-270 -85 116
-152 72 207
608 418 -117
692 437 -160
1054 293 -258
19 481 161
16 382 185
1656 284 -311
1555 1375 -230
840 488 -237
1048 219 -250
-175 -36 195
-690 -973 -586
-245 -72 131
585 382 -78
22 593 214
-63 12 232
-34 24 240
413 26 52
27 50 258
135 -467 -8
189 -413 -20
318 -365 -18
474 327 61
117 72 179
106 274 173
-319 318 164
-291 330 172
165 -647 -9
242 121 187
-236 354 195
295 136 160
222 -754 -20
2118 185 -262
-175 379 200
394 167 132
286 -276 -36
428 181 124
-700 -695 -453
111 -461 -1
-66 356 232
-228 182 177
-1199 -980 -381
0 439 161
-171 207 194
106 -140 164
60 472 167
306 -766 -26
-25 267 228
389 380 95
194 -529 7
461 -711 -40
198 -104 175
1256 -47 -258
-282 -197 85
-233 -245 83
66 291 159
92 303 174
63 -564 -11
179 -516 9
221 351 164
400 -671 -25
227 352 158
-774 -565 -412
434 -699 -27
281 364 103
88 -545 11
403 410 101
436 -667 -30
24 -451 33
168 -46 177
241 -774 -14
-898 -1370 -395
287 -759 -24
109 -515 10
532 429 -88
1102 1762 -226
1562 1100 -271
224 -502 -5
459 -654 -35
-1041 -933 -454
31 -433 18
-626 -634 -335
59 -439 -5
321 -466 -9
-840 -1024 -546
872 487 -247
-54 590 223
-100 1642 376
318 -264 -36
-145 -201 118
-55 -155 120
-32 -132 131
100 205 184
-1 -127 142
112 -322 0
83 133 211
16 -347 41
-148 -23 207
-3 1009 285
341 0 71
72 -355 -21
144 -318 -5
-726 -849 -587
-44 228 231
357 -692 -25
603 -1734 234
423 -717 -30
453 42 57
-14 770 205
24 783 186
201 -37 156
35 807 225
474 163 121
-752 -624 -405
51 796 197
-617 -602 -302
-815 -728 -501
145 -290 -3
46 830 264
251 -609 -11
182 -279 -23
10 981 282
-1157 -1053 -405
7 -346 77
-642 -644 -360
991 198 -241
435 110 91
892 834 -355
355 -252 -49
1507 246 -308
29 -446 0
1080 907 -341
-244 40 189
1444 1052 -295
163 -115 175
2001 439 -264
1678 1149 -242
1883 391 -288
1791 1197 -207
-1388 -947 -320
-585 -430 -187
-536 -407 -142
1170 1640 -242
-12 238 228
76 165 209
-232 -173 117
283 131 167
1223 54 -258
134 184 198
163 192 175
1396 -347 -306
191 199 152
1243 1773 -208
493 329 34
96 -182 143
-1017 -619 -306
-785 -718 -492
-197 -235 104
350 245 61
383 257 58
414 269 62
1455 364 -307
-627 -722 -460
1007 407 -261
1583 413 -309
-251 491 184
402 -471 -18
524 306 27
460 116 97
2062 606 -231
81 102 236
526 341 -13
242 -640 -14
1867 106 -306
201 -498 0
284 -603 -8
448 -388 -39
345 -617 -20
-235 -286 64
-3 623 245
363 -582 -15
-40 1439 366
4 -227 76
248 -559 4
6 837 263
360 -259 -54
393 -240 -62
245 -272 -32
418 -230 -65
462 65 76
-183 -154 136
307 111 130
-787 -759 -534
140 156 216
-766 -746 -522
-737 -695 -460
-344 2038 278
33 -85 191
-668 -693 -436
-93 582 207
28 -218 74
763 465 -203
-882 -499 -389
1462 -323 -310
-85 71 224
263 -20 121
-1491 -1316 -397
571 347 -35
381 -625 -26
352 107 114
298 -37 120
-207 -273 75
1679 1434 -189
-100 546 200
385 -444 -14
457 -216 -64
-831 -956 -574
-216 397 188
1343 -18 -281
462 -417 -40
2115 488 -232
-810 -1015 -564
-682 -714 -473
163 -729 -20
868 692 -320
-133 -133 124
321 145 150
476 -412 -41
-498 -811 -454
168 164 211
-205 -163 131
-377 294 148
-237 2086 329
47 608 229
-939 -594 -366
89 -116 179
415 -3 71
189 339 170
-94 344 224
-305 532 172
-280 -13 153
222 -790 -5
-871 -569 -418
408 -386 -34
-760 -932 -596
-348 481 172
36 322 193
0 -389 54
-327 419 183
-739 -991 -584
1814 227 -305
45 338 161
-107 -124 124
270 376 115
118 -570 12
199 174 190
-308 -252 53
23 247 216
85 -53 212
2009 724 -228
-950 -554 -323
248 -392 -30
960 726 -327
1487 -244 -310
971 1287 -322
-262 551 182
-831 -738 -506
-505 -307 -76
310 49 97
-1370 -1268 -382
382 329 75
109 -408 -9
-150 -249 90
370 -517 -15
-73 1156 296
-794 -1075 -541
208 276 159
147 -396 -24
1395 1740 -189
-717 -916 -598
206 -521 6
-301 431 180
1127 57 -236
-665 -658 -395
211 -474 -6
-535 -359 -124
287 -694 -15
170 -361 -27
-49 1343 328
222 75 165
999 740 -328
-82 -112 140
446 -644 -26
180 -697 -16
224 179 169
-555 -443 -168
-334 177 196
331 -31 108
-168 622 195
-711 -486 -362
524 321 11
1317 862 -319
-190 575 196
588 534 -188
196 -443 -1
576 703 -346
112 345 170
-947 -787 -477
-69 -213 127
954 254 -238
-52 1169 322
-634 -699 -426
15 -533 -5
-674 -967 -585
441 -455 -17
-54 1453 384
111 143 209
301 -338 -6
-17 -72 199
254 186 149
69 -490 -1
-1137 -808 -355
322 -684 -23
-786 -535 -424
428 224 76
-602 -752 -482
1127 789 -329
-155 592 194
-811 -768 -533
-155 -64 181
548 401 -81
312 -748 -31
-394 223 176
-720 -798 -564
1333 1000 -313
-108 167 209
-442 -198 21
989 267 -245
-233 516 190
-863 -770 -519
-1494 -1031 -334
-690 -789 -554
-641 -884 -573
573 471 -140
224 208 127
44 -311 5
-39 288 230
-962 -807 -471
-617 -943 -570
398 52 64
364 -659 -30
1395 1455 -245
498 238 71
519 -277 -57
1253 837 -324
14 -63 214
267 15 114
-46 53 238
252 107 177
28 34 258
41 159 262
180 183 182
310 204 113
230 199 133
59 60 244
272 203 116
363 220 83
-719 -469 -376
-52 1269 305
70 856 277
398 -190 -38
-66 1483 382
-210 294 197
-616 -676 -380
-52 1485 361
812 279 -180
341 -755 -33
-107 373 223
849 289 -202
-361 231 167
886 301 -218
597 477 -154
925 313 -232
70 24 206
988 332 -249
-361 -162 56
45 -241 58
418 134 107
-1416 -1001 -331
282 -826 -12
-103 -41 207
-7 866 266
74 -40 227
19 878 279
-33 396 214
51 890 279
451 -608 -8
-258 70 190
-121 332 212
-229 80 186
-1366 -983 -334
-185 88 196
-347 375 165
-134 118 201
-106 130 209
-71 143 224
-25 166 245
467 254 57
-1 174 245
66 62 239
129 -626 -3
1722 -226 -321
-290 401 183
1091 370 -272
413 -696 -26
1272 434 -299
495 264 52
-456 -394 -98
1403 482 -308
1531 531 -309
648 331 -70
210 239 139
1894 676 -260
300 262 66
706 635 -292
338 275 59
-462 -323 -69
462 323 69
360 -554 -8
-230 418 184
1685 504 -302
510 332 6
325 236 69
-35 -201 123
-439 -311 -46
0 -189 107
37 -173 124
1095 1192 -325
268 -727 -19
325 -728 -29
232 -93 170
268 -80 159
-18 1038 288
281 -76 155
489 -657 -26
1216 1240 -304
345 -56 128
161 61 174
369 -48 120
-205 364 197
345 115 124
-334 -79 82
240 -789 -8
90 60 169
1041 1595 -260
53 167 234
216 236 127
275 226 84
-163 5 210
-134 17 218
667 310 -72
-99 30 225
-73 486 200
-292 259 161
537 -195 -57
-26 600 235
-2 581 198
-219 -205 111
18 599 219
-148 -61 185
-387 -245 27
-54 492 189
-433 -269 -16
-334 -221 55
974 392 -252
-932 -772 -479
-877 -755 -501
236 354 138
82 333 168
254 334 110
297 -804 -12
1278 1407 -271
-82 -70 191
165 -390 -29
-367 134 205
390 228 73
312 377 98
432 382 76
238 -841 -3
124 -189 125
731 644 -298
938 1222 -336
-14 -38 228
90 -35 214
120 -28 192
-126 604 202
-103 616 223
-78 634 245
237 -529 5
1376 885 -313
-21 -326 88
182 91 183
1497 934 -298
21 -22 245
1616 982 -276
1733 1030 -248
1847 1079 -214
-240 283 183
-863 -528 -417
-240 212 175
511 -264 -61
57 -11 236
83 -297 9
-128 260 215
-97 273 221
-68 285 223
-9 303 238
-805 -475 -423
24 320 222
38 315 158
1458 1321 -257
54 321 157
-118 582 198
-914 -541 -369
-341 143 208
42 -93 180
33 -306 23
195 -640 -11
-332 348 162
-645 -813 -550
-304 360 171
-277 372 185
-271 200 177
-247 384 189
-411 -257 9
-187 408 198
-457 -280 -42
281 -368 -17
-479 -292 -58
-138 450 213
-620 -803 -530
12 -104 173
-31 1068 289
13 -557 -21
100 -69 194
79 -521 2
12 -419 45
-575 -776 -486
333 30 70
53 -412 -8
165 -455 -2
4 660 246
5 -393 44
6 -315 76
177 -485 -1
-371 -266 27
67 -394 -21
246 -460 -13
91 -166 148
480 115 93
159 327 173
310 -436 -13
502 -364 -15
-52 -109 156
-121 645 231
-256 -114 112
-94 658 247
-121 -11 218
-63 672 257
-32 682 253
-10 689 241
165 -339 -14
-248 186 177
-13 -112 163
-944 -684 -415
165 -16 159
-19 749 203
-92 0 227
260 -490 -15
-305 157 200
426 240 63
66 -535 -3
-25 783 219
-1039 -649 -315
513 47 56
42 -430 0
-18 433 169
154 -270 -1
-1436 -1434 -405
-219 -60 145
27 -510 0
60 -71 202
-564 -919 -543
-365 264 151
105 -286 5
486 -205 -59
322 -663 -17
1305 -169 -274
-18 475 169
326 -297 -33
325 -400 -34
291 -478 -13
295 6 91
522 764 -378
-863 -671 -444
-946 -574 -346
185 -10 150
-302 -25 132
355 -491 -20
674 -1779 239
-70 421 217
-229 2 190
73 54 173
217 -436 -8
-333 276 151
-513 -294 -66
37 920 280
51 -295 9
1278 -116 -264
606 431 -126
6 908 277
1383 63 -291
-212 224 185
-1402 -1837 -416
24 -411 23
-842 -663 -442
204 -3 142
36 765 176
149 84 181
477 291 58
371 -483 -21
52 202 199
296 196 127
198 104 189
262 127 181
1078 1466 -282
670 880 -404
87 -451 3
187 -262 -21
-264 342 185
2039 36 -286
277 -448 -10
492 40 49
-667 -990 -577
-49 -26 229
-344 33 167
410 62 69
-450 -240 -5
-378 369 163
-760 -707 -477
231 -859 14
104 -195 128
352 155 144
1234 -194 -255
513 107 88
-151 244 204
347 -353 -13
-804 -647 -431
748 330 -137
497 390 -33
400 -405 -35
-119 403 220
341 389 110
-1215 -1348 -387
76 -420 -4
416 -400 -39
-198 610 190
-87 415 221
-356 24 135
-138 -83 155
-107 -83 175
-901 -575 -397
12 161 251
-354 392 170
-593 -865 -545
564 435 -107
-21 -10 239
9 6 251
-46 427 200
111 -543 18
1273 -180 -267
34 -366 -18
-21 653 258
30 -177 117
-306 289 162
290 20 96
-198 195 183
-115 231 213
1508 1788 -154
333 -323 -10
-271 319 177
118 -172 143
44 92 264
32 451 162
1008 138 -234
519 -310 -23
813 348 -184
737 614 -280
252 50 142
481 19 52
1833 1392 -155
273 32 116
724 389 -147
-195 336 205
789 929 -383
-322 490 166
-396 -325 -21
-224 325 197
51 -363 -28
397 -563 -9
-1189 -1474 -376
221 -62 166
-51 260 226
-268 443 177
-428 -228 17
4 279 234
70 102 264
-395 -223 31
-855 -625 -425
224 -330 -10
557 -293 -42
256 -318 -8
2042 943 -182
364 44 62
284 -308 -16
57 -115 166
-768 -785 -558
233 79 164
-654 -740 -504
28 286 223
362 -314 -18
-104 457 213
1334 1289 -282
78 -153 156
440 -258 -69
-14 -225 102
1186 268 -275
-1219 -1622 -368
21 -210 83
37 285 192
-893 -538 -394
52 -206 95
60 -176 134
867 1074 -365
-1449 -1719 -430
-280 97 200
78 -6 209
102 -1 185
56 -312 -1
-154 -107 128
126 6 163
154 13 155
1217 7 -251
-168 -87 143
189 20 151
373 86 89
-257 414 182
175 -135 166
25 -314 50
60 25 237
-1077 -660 -297
-653 -859 -571
-995 -636 -340
121 -403 -14
-186 238 194
293 -314 -12
-725 -540 -376
-745 -816 -576
-659 -575 -317
-658 -781 -541
-45 1367 364
-625 -743 -491
-898 -846 -533
-51 774 224
368 -285 -53
506 -244 -63
-1058 -677 -323
-969 -629 -357
-809 -640 -428
-817 -828 -569
-787 -602 -416
-116 -110 130
-79 -110 145
749 523 -228
-66 -94 174
395 115 97
-36 -88 183
41 -51 228
-975 -1263 -426
-1385 -1552 -402
-769 -825 -574
-710 -682 -442
-1497 -1601 -439
-1223 -1255 -390
-827 -814 -560
-598 -583 -271
-355 -304 14
-1140 -1456 -376
-1009 -1407 -383
-673 -826 -565
-278 -268 59
366 -383 -27
-172 -220 115
-156 -213 114
-164 349 206
-138 -208 108
-709 -880 -594
-108 -195 111
-141 290 214
-79 -183 120
-51 -172 120
-631 -837 -551
-15 -159 118
13 -147 127
37 -135 146
70 -118 172
-1727 -1128 -388
-590 -809 -515
76 96 209
148 -87 186
45 223 195
296 -441 -11
181 -75 181
117 -437 3
263 -54 147
-1228 -935 -360
667 554 -226
-1185 -920 -375
-26 820 235
23 950 281
-5 937 274
-42 1240 312
-363 407 175
-683 -515 -323
1428 79 -298
1561 128 -311
-833 -588 -425
92 -482 -1
-37 -310 93
9 78 257
397 -370 -25
646 492 -179
-1146 -1593 -358
661 372 -103
-845 -559 -427
704 383 -133
166 -280 -13
806 541 -251
791 407 -189
868 431 -228
402 289 68
946 456 -256
-202 516 197
-53 642 256
-376 -204 46
2 -367 76
81 23 176
221 148 195
-37 1139 318
-266 238 171
1373 -216 -294
1405 -204 -299
222 -666 -16
-110 302 216
338 184 139
464 222 81
-723 -1050 -559
-658 -1026 -562
1220 1525 -258
9 -285 56
904 574 -281
-322 -103 80
1019 614 -302
1042 622 -305
-134 675 235
83 104 246
-107 688 249
-496 -264 -50
1360 -289 -300
51 -447 -5
1341 597 -312
187 -152 153
1479 649 -309
-318 2133 295
1605 695 -300
1955 842 -225
-1232 -1217 -389
1327 661 -314
-810 -550 -429
273 -791 -8
-1023 -1146 -446
-948 -1123 -476
-857 -1094 -516
-802 -576 -421
1539 -156 -314
-822 -518 -432
1654 -105 -320
1795 -59 -316
-198 -48 171
1919 -11 -305
-1549 -1483 -440
-143 148 192
-1315 -1386 -387
-56 543 188
13 698 220
-1520 -1185 -374
-1051 -1289 -409
-1076 -886 -419
-1299 -1101 -371
-909 -1241 -444
-730 -1106 -523
-1044 -1018 -455
471 -246 -67
-264 -43 140
-317 219 171
-1028 -873 -449
271 -630 -14
-282 229 168
-143 634 212
301 -10 93
-225 254 185
1658 26 -316
1743 58 -315
101 -222 86
-205 123 187
33 849 276
1987 154 -289
150 -19 170
221 -574 0
-615 -759 -500
368 191 130
-196 -306 62
-348 -116 67
1534 -372 -313
450 218 85
-21 201 237
-563 -478 -193
71 362 162
-114 1702 354
16 212 218
1381 -155 -292
-1605 -1364 -432
459 -346 -18
120 244 169
162 260 175
-500 -381 -116
386 -698 -25
-37 570 203
413 -645 -24
-190 -6 199
238 13 132
228 288 133
877 1101 -360
383 -513 -19
578 321 1
286 292 76
-143 563 198
86 -399 -17
44 -518 -4
-308 -209 70
204 -304 -14
52 -497 -1
-54 326 235
265 322 96
-789 -873 -589
-176 549 200
-291 4 161
-41 812 224
-227 -48 153
43 282 160
4 -438 60
323 -637 -20
370 -311 -22
408 234 68
-592 -515 -231
449 188 119
1830 509 -287
-7 35 250
1593 -274 -319
365 -761 -31
-415 -306 -26
-598 -1002 -550
-164 -286 75
-164 106 197
-60 599 228
-307 -141 78
611 359 -67
1669 222 -312
-15 552 170
-23 338 236
12 -327 79
677 502 -195
259 -672 -12
122 -386 -21
340 339 75
28 -122 154
887 369 -223
1096 101 -238
-818 -530 -432
39 86 262
413 -329 -16
-636 -561 -288
402 -302 -36
1645 -255 -321
1948 558 -263
197 -803 4
-702 -599 -367
-35 196 239
15 -280 46
386 -756 -35
19 -295 48
-29 1000 267
299 61 113
29 730 188
-35 611 245
-284 -123 95
42 -472 3
-171 450 207
159 129 212
192 -706 -18
16 350 217
43 -340 -11
476 -376 -29
-1429 -1149 -364
30 -524 -7
-982 -751 -430
454 -580 0
172 133 213
79 98 244
441 -319 -20
435 -623 -19
445 -287 -53
-310 -66 103
1087 504 -289
188 138 210
183 -384 -33
202 -738 -19
-331 -292 32
1337 -229 -289
258 -835 -9
-119 -237 94
-347 306 154
160 -617 -11
-217 -131 126
299 98 127
259 160 179
30 -293 35
31 352 190
70 -335 -14
349 62 79
326 72 102
979 1428 -294
299 172 158
-999 -1005 -479
514 -231 -62
-26 498 166
366 -475 -16
-600 -661 -343
214 -372 -30
122 315 180
1483 -38 -305
-49 1104 291
99 -565 7
-239 -30 163
147 346 165
21 -433 46
-833 -888 -576
-904 -726 -466
432 -357 -24
73 60 209
733 -1891 250
447 -317 -21
-858 -677 -448
481 -275 -59
1847 -178 -314
-82 -252 109
-394 -287 0
99 -308 6
28 183 223
691 316 -91
1 208 227
-297 -296 43
-684 -631 -377
13 149 261
-905 -978 -536
33 635 234
7 510 158
-193 -121 131
314 103 121
195 -342 -17
53 356 164
303 -47 129
209 380 159
-638 -772 -524
424 -430 -27
82 71 176
493 -303 -33
-53 1336 326
-216 -18 185
-863 -897 -562
-64 1299 303
-363 336 160
1969 -129 -301
1174 671 -316
184 -614 -8
1063 495 -284
-53 -242 120
-267 -226 79
379 -741 -35
56 191 201
148 -527 11
