-41.928955078125 -327.4049072265625 91.9298095703125
425.87249755859375 -723.5732421875 -31.352294921875
-167.457275390625 -228.2872314453125 109.4580078125
571.1890869140625 -528.69287109375 -19.2275390625
-1030.2861328125 -333.7396240234375 -36.4942626953125
320.6771240234375 -623.44775390625 -19.063720703125
636.4092407226562 -131.79736328125 -88.219970703125
-134.75 118.455322265625 201.559814453125
986.858154296875 -543.199951171875 -125.13330078125
296.0889892578125 -614.70361328125 -13.960205078125
56.6832275390625 -10.5306396484375 237.4788818359375
1.271728515625 208.4493408203125 227.3948974609375
-1224.628662109375 -1214.3607177734375 -391.0753173828125
1070.6513671875 1465.0592041015625 -282.8109130859375
-431.51416015625 -157.0150146484375 40.0648193359375
-874.541259765625 432.8543701171875 30.0181884765625
349.1922607421875 -682.5711669921875 -24.8819580078125
-1043.82275390625 -193.0272216796875 26.8167724609375
476.1080322265625 -412.80224609375 -41.0120849609375
78.06396484375 618.171630859375 234.7132568359375
-1927.719482421875 -773.524169921875 -283.33056640625
509.887451171875 141.0941162109375 110.2127685546875
1222.4122314453125 -976.45263671875 -45.5167236328125
-22.1361083984375 -501.03375244140625 48.9141845703125
490.8372802734375 749.1141357421875 -369.64892578125
-156.1602783203125 -213.8095703125 114.0650634765625
-829.518310546875 -955.4932861328125 -574.69873046875
565.4228515625 -790.7783203125 -26.510009765625
-1348.394775390625 -531.7359619140625 -138.370361328125
264.217041015625 1384.6270751953125 -98.6766357421875
-249.5601806640625 -975.5703735351562 -340.4989013671875
-247.467529296875 175.9202880859375 179.7801513671875
179.45166015625 -313.072509765625 -9.2393798828125
1109.9078369140625 -784.2784423828125 -88.9822998046875
-257.383056640625 -1.0982666015625 174.9385986328125
54.525146484375 321.21142578125 157.528564453125
163.1866455078125 -612.6468505859375 -10.1998291015625
-1461.71240234375 618.3714599609375 -10.7572021484375
564.4608154296875 435.0283203125 -107.906982421875
-692.673095703125 -788.16357421875 -553.3857421875
240.8385009765625 -618.04443359375 -11.960205078125
212.438232421875 -1164.806640625 90.79541015625
632.6591186523438 -1089.64306640625 41.0447998046875
327.87451171875 -810.1804809570312 -17.0908203125
-108.498291015625 542.4456787109375 201.744140625
-43.2696533203125 -29.59375 229.0643310546875
-826.621826171875 140.7515869140625 46.32763671875
192.4281005859375 -268.7655029296875 -24.8800048828125
360.5718994140625 1186.3236083984375 -159.0511474609375
-238.33642578125 -346.61328125 46.08056640625
-789.17333984375 -873.5618286132812 -589.6934814453125
506.58685302734375 -244.3297119140625 -63.2271728515625
298.8280029296875 61.8226318359375 113.9459228515625
2128.49853515625 -1185.40087890625 1.602783203125
-1971.262939453125 967.2244873046875 129.0552978515625
-416.999755859375 -299.4820556640625 -23.7410888671875
-28.5029296875 -457.5577392578125 63.0645751953125
384.4359130859375 -806.84326171875 -22.29443359375
1645.721435546875 -393.05560302734375 -318.3682861328125
156.0732421875 330.8502197265625 172.2330322265625
1694.1651611328125 -511.27947998046875 -309.0213623046875
393.1846923828125 -951.8894653320312 21.98828125
1374.0689697265625 200.0791015625 -295.26953125
145.667724609375 -290.5125732421875 -3.8553466796875
553.4151000976562 -679.464111328125 -26.3353271484375
-121.7818603515625 332.062744140625 212.3751220703125
-371.995849609375 -275.2684326171875 22.3487548828125
-319.56201171875 -251.0748291015625 50.2816162109375
406.9383544921875 -536.80908203125 -4.64404296875
149.856201171875 -740.2774658203125 -21.9276123046875
64.964599609375 861.3724365234375 277.2969970703125
352.96832275390625 223.3011474609375 80.4112548828125
285.8551025390625 58.1910400390625 122.1336669921875
66.687744140625 291.6551513671875 159.7391357421875
-293.6065673828125 -238.9774169921875 64.8870849609375
-267.6668701171875 -226.8798828125 79.5311279296875
695.7142333984375 -939.2401123046875 -2.322021484375
-394.590576171875 -287.375 -0.4693603515625
1689.899169921875 176.538330078125 -312.9781494140625
533.3421630859375 -186.26708984375 -54.6973876953125
126.23095703125 599.06005859375 228.731689453125
-107.566162109375 -124.783203125 124.5577392578125
529.47265625 -736.86572265625 -36.070068359375
377.254150390625 -655.414306640625 -29.44482421875
-759.043212890625 -748.5709838867188 -525.02001953125
-47.3519287109375 -489.6875 52.739013671875
603.0540161132812 -609.932373046875 -40.6014404296875
68.9825439453125 -491.7056884765625 -1.720947265625
-127.882568359375 -166.81201171875 125.5850830078125
429.95941162109375 -652.3701171875 -27.170654296875
954.1109619140625 254.73876953125 -238.844482421875
560.8701171875 -725.6751098632812 -40.4854736328125
-40.0333251953125 -537.71533203125 41.1827392578125
1748.2520751953125 -1514.7841796875 204.75830078125
1778.5545654296875 -1504.92578125 194.4554443359375
1323.78076171875 -856.8721923828125 -77.7647705078125
333.49029541015625 -389.01458740234375 -30.394775390625
-857.93798828125 370.6368408203125 33.26025390625
-62.294677734375 -142.260986328125 123.8924560546875
-47.819580078125 -171.8233642578125 120.4521484375
355.271484375 -615.3826904296875 -21.233154296875
-495.8026123046875 -151.9715576171875 9.5128173828125
523.54345703125 146.3896484375 111.038330078125
-34.4300537109375 -130.1685791015625 133.83251953125
-185.2911376953125 165.4708251953125 183.1697998046875
-119.97314453125 -237.654541015625 94.6077880859375
-194.8896484375 509.3997802734375 199.4354248046875
347.953857421875 -718.1749267578125 -28.939697265625
1658.505615234375 26.07177734375 -316.692626953125
761.2271728515625 463.6326904296875 -201.3184814453125
286.663330078125 292.8536376953125 76.2130126953125
618.1165161132812 2138.34130859375 -177.383544921875
1036.339599609375 -595.6971435546875 -139.32958984375
-257.63623046875 414.019775390625 182.53515625
952.4854736328125 -538.45751953125 -121.952880859375
-1948.137939453125 1243.7000732421875 138.2149658203125
100.293701171875 -69.6944580078125 194.7718505859375
566.728759765625 -545.854248046875 -21.033935546875
123.9603271484375 -60.85693359375 194.0242919921875
133.009765625 -57.6151123046875 192.8560791015625
598.4932861328125 -692.7241821289062 -31.089599609375
503.36669921875 119.514892578125 98.2777099609375
183.5936279296875 -384.29754638671875 -33.529541015625
380.248291015625 -1478.982421875 213.36865234375
272.3583984375 203.6961669921875 116.450927734375
-432.20263671875 -85.799072265625 55.9156494140625
-468.283447265625 -434.57525634765625 -116.9254150390625
600.4359130859375 -624.632080078125 -41.6566162109375
1089.86083984375 -945.413330078125 -48.0390625
375.5806884765625 -115.524169921875 117.9783935546875
561.5381469726562 -1102.395751953125 46.4573974609375
-340.657470703125 -334.39947509765625 9.631591796875
269.056640625 -1225.1400146484375 119.6651611328125
100.8626708984375 -687.0924682617188 -4.5037841796875
25.2607421875 250.0758056640625 214.8739013671875
383.351806640625 -1529.359619140625 214.666748046875
-1644.959716796875 -524.8258056640625 -149.8084716796875
1982.5145263671875 -1167.5225830078125 93.2261962890625
116.478271484375 -681.1409912109375 -4.225830078125
-215.5634765625 -322.40435791015625 55.373046875
-65.93798828125 670.626953125 256.7159423828125
131.39013671875 -675.097412109375 -1.6497802734375
-184.701904296875 64.731689453125 199.4935302734375
-534.294677734375 -205.40771484375 -20.90185546875
258.4176025390625 -389.6875 -28.3792724609375
357.5382080078125 -85.952392578125 130.13671875
-668.194091796875 -695.4627075195312 -439.9627685546875
-2507.382568359375 575.7322998046875 40.3074951171875
-738.552490234375 -155.4241943359375 -89.8201904296875
95.9669189453125 -307.6591796875 6.774658203125
330.586181640625 134.1944580078125 140.3548583984375
514.7156982421875 -263.5146484375 -62.365234375
-270.39306640625 -46.5723876953125 136.1407470703125
2138.02587890625 -473.3892822265625 -257.9273681640625
-64.482666015625 -284.6832275390625 100.90283203125
519.4027709960938 152.93115234375 114.0936279296875
-378.4453125 164.2003173828125 201.152587890625
-82.13623046875 -112.684326171875 140.447021484375
-760.349365234375 -932.6862182617188 -596.2662353515625
138.817626953125 -689.879150390625 -3.8343505859375
6.6982421875 -972.6806030273438 -58.660888671875
-1235.05419921875 530.981689453125 -14.817138671875
647.5333862304688 -114.368896484375 -91.948486328125
481.105224609375 -1203.074951171875 78.5606689453125
130.633056640625 -295.5850830078125 0.093505859375
111.535400390625 -559.544921875 13.139404296875
792.9965209960938 1498.7344970703125 -278.224853515625
127.0386962890625 -553.5029296875 14.2705078125
480.33807373046875 -577.80224609375 -3.0972900390625
249.086669921875 -393.537109375 -30.4266357421875
91.7249755859375 588.6112060546875 233.2620849609375
-361.477783203125 -91.177978515625 71.08349609375
160.880859375 -541.4266357421875 9.60302734375
566.8694458007812 -1089.037841796875 48.6243896484375
386.164794921875 -685.9716796875 -25.7650146484375
473.48870849609375 -1205.80322265625 79.544677734375
298.5035400390625 -736.2930297851562 -25.1473388671875
177.1961669921875 -535.3868408203125 8.749755859375
-101.2884521484375 -45.0443115234375 205.3392333984375
-98.53564453125 444.905029296875 215.8365478515625
866.1787719726562 430.278564453125 -227.3388671875
245.46875 -272.6983642578125 -32.0396728515625
1136.7613525390625 386.2984619140625 -280.8553466796875
87.0732421875 -384.93310546875 -24.6763916015625
-2026.937744140625 776.7799072265625 106.481201171875
216.1611328125 -644.9071044921875 -13.7227783203125
606.2779541015625 -1074.8499755859375 43.992919921875
-461.41015625 -158.4737548828125 23.5938720703125
439.3826904296875 862.5394287109375 -402.4647216796875
171.61865234375 -362.63739013671875 -27.6590576171875
269.3692626953125 -746.784423828125 -21.739013671875
366.3148193359375 -676.5335693359375 -27.7081298828125
59.436767578125 392.4122314453125 159.6949462890625
213.351318359375 -680.5065307617188 -13.9405517578125
-536.080810546875 1752.0897216796875 146.0799560546875
-1292.818115234375 578.0164794921875 -15.5560302734375
301.87890625 -967.3005981445312 34.06396484375
294.831787109375 345.0284423828125 90.98974609375
560.5404052734375 -1785.9736328125 241.092041015625
812.691162109375 279.4044189453125 -180.056396484375
483.52362060546875 -576.6278686523438 -3.29541015625
1268.3248291015625 -253.1923828125 -275.843994140625
153.0987548828125 -633.465087890625 -8.5985107421875
830.1644287109375 -154.8568115234375 -130.931884765625
584.2906494140625 -541.5797119140625 -23.0279541015625
-745.461669921875 -167.2977294921875 -92.634521484375
574.1991577148438 -1849.6346435546875 242.22210693359375
524.504638671875 182.0526123046875 116.1494140625
925.3094482421875 313.863037109375 -232.3267822265625
115.9013671875 521.4278564453125 155.5848388671875
-2620.615966796875 530.200927734375 1.819580078125
1234.0654296875 -194.053466796875 -255.988525390625
501.65576171875 -233.956298828125 -62.3824462890625
209.336181640625 306.404296875 159.5535888671875
557.18896484375 -178.0472412109375 -59.843994140625
-1363.005859375 1295.5347900390625 109.6480712890625
724.0501708984375 -385.70782470703125 -77.5899658203125
66.1700439453125 62.3389892578125 239.245361328125
414.1614990234375 269.96630859375 62.6080322265625
517.957275390625 -227.9163818359375 -63.2015380859375
-1248.357666015625 560.5408935546875 -14.239990234375
-155.40234375 76.8201904296875 205.927001953125
-11.2724609375 -479.05255126953125 52.8878173828125
-1227.23388671875 -488.38629150390625 -116.91845703125
1023.513671875 278.8868408203125 -252.378173828125
434.1075439453125 349.0692138671875 78.974365234375
-1130.43310546875 -511.5758056640625 -146.2855224609375
-1774.911376953125 11.209228515625 -46.866943359375
-374.20947265625 709.5672607421875 148.0831298828125
1652.1082763671875 -594.5479125976562 -298.448486328125
-814.089599609375 -547.6953125 -430.8226318359375
245.446044921875 -668.425537109375 -14.3375244140625
306.484130859375 174.7066650390625 155.5057373046875
217.7764892578125 -626.2274169921875 -8.4813232421875
261.475341796875 401.2596435546875 111.7806396484375
208.2283935546875 276.107177734375 159.1334228515625
685.4629516601562 -301.89111328125 -58.969970703125
1324.384033203125 1004.1761474609375 -313.8704833984375
-375.999755859375 -131.0225830078125 58.5150146484375
-995.782958984375 -466.00457763671875 -160.2396240234375
1603.804931640625 -746.2764282226562 -269.2244873046875
-868.779296875 -600.990234375 -418.6417236328125
146.894775390625 -686.6803588867188 -2.9185791015625
116.030029296875 378.7135009765625 155.794189453125
417.50848388671875 -744.3961181640625 -33.9632568359375
1615.61962890625 9.9752197265625 -315.864013671875
264.708984375 -1126.72900390625 97.529541015625
570.3129272460938 -1851.13037109375 242.05926513671875
320.50732421875 -657.873779296875 -18.161376953125
-527.7545166015625 -551.121337890625 -210.1390380859375
-200.869873046875 -124.706298828125 130.173828125
-862.350830078125 -529.46240234375 -418.0596923828125
-452.896484375 1859.5819091796875 191.0689697265625
435.15802001953125 -560.32470703125 -2.6561279296875
334.48516845703125 -653.00830078125 -20.874267578125
339.8050537109375 -738.9984130859375 -32.0770263671875
878.51416015625 241.6187744140625 -222.083984375
340.68896484375 392.6224365234375 109.7030029296875
295.8961181640625 171.498291015625 160.6207275390625
-581.464111328125 -532.210205078125 -232.1385498046875
9.1063232421875 78.16748046875 257.94586181640625
479.1192626953125 -806.202880859375 -26.657958984375
58.6539306640625 191.6236572265625 201.5252685546875
-479.200927734375 -294.1258544921875 -59.738037109375
938.9688720703125 1222.3536376953125 -336.43115234375
-1366.754150390625 -983.3052978515625 -334.5819091796875
-206.392333984375 538.4190673828125 196.1910400390625
346.56939697265625 -649.0416259765625 -24.7572021484375
725.5689697265625 -392.552734375 -73.9027099609375
521.4290161132812 -651.490966796875 -22.2041015625
9.8685302734375 1962.7362060546875 41.6082763671875
-777.384521484375 -475.302490234375 -416.932373046875
-45.91845703125 -75.0596923828125 193.52783203125
611.8148803710938 -858.6279296875 -21.031494140625
464.27325439453125 -813.385009765625 -28.1644287109375
-78.252197265625 2026.1866455078125 350.502685546875
-1283.156982421875 749.9422607421875 -42.76123046875
-1005.52685546875 40.6341552734375 45.1668701171875
-37.19775390625 -542.683837890625 39.619384765625
-794.509521484375 -751.6656494140625 -526.0938720703125
214.815673828125 2278.27392578125 -71.5567626953125
457.6077880859375 -1688.8189697265625 228.83709716796875
-50.242919921875 257.7301025390625 225.8955078125
64.16748046875 -376.193359375 -23.6844482421875
496.3836669921875 -571.76171875 -3.2916259765625
-164.993408203125 521.4866943359375 204.4102783203125
225.051025390625 2281.1884765625 -77.7000732421875
94.3912353515625 203.0103759765625 187.8365478515625
-94.6630859375 344.1571044921875 224.1375732421875
371.76605224609375 2326.521484375 -142.965087890625
166.6263427734375 428.6260986328125 131.8541259765625
333.29327392578125 -688.612060546875 -25.0458984375
510.21337890625 -794.1192626953125 -24.6099853515625
-1946.888916015625 -739.5960693359375 -273.1268310546875
-58.89111328125 1853.7293701171875 82.59521484375
383.101806640625 -1443.3831787109375 213.4794921875
-1700.119873046875 747.4832763671875 68.114990234375
331.44427490234375 26.9921875 71.8187255859375
-118.114501953125 818.3841552734375 224.558837890625
-274.24169921875 99.6844482421875 198.3726806640625
369.36248779296875 -640.934814453125 -28.0716552734375
-831.717529296875 658.5489501953125 45.9078369140625
373.54974365234375 -1447.3173828125 211.4254150390625
898.0902099609375 -433.698486328125 -92.57373046875
468.63043212890625 -726.2825927734375 -41.840576171875
303.54736328125 371.102294921875 94.5277099609375
1374.934814453125 198.1402587890625 -295.290771484375
-674.03125 -371.5316162109375 -304.6973876953125
505.22113037109375 -1722.2044677734375 231.10650634765625
-1488.21728515625 677.4898681640625 -9.8514404296875
41.7255859375 2105.18896484375 123.4930419921875
517.24267578125 -192.3074951171875 -54.371337890625
624.0186767578125 -156.092529296875 -81.20166015625
118.7724609375 -299.712890625 2.4000244140625
-1078.605224609375 -374.8277587890625 -56.2220458984375
-361.33154296875 -162.3924560546875 56.5570068359375
345.99786376953125 186.767822265625 136.9791259765625
-157.1375732421875 177.5623779296875 192.4036865234375
-863.9716796875 -897.6953735351562 -562.9735107421875
1319.7574462890625 -850.4893798828125 -74.8248291015625
244.4659423828125 -651.6146240234375 -14.7830810546875
2110.6728515625 -484.48529052734375 -262.718994140625
116.8272705078125 -99.2623291015625 186.3013916015625
700.9107666015625 -369.4337158203125 -87.076904296875
-3.3065185546875 174.989990234375 245.193359375
-637.04052734375 1710.1661376953125 122.1849365234375
2089.2021484375 -81.4775390625 -281.3070068359375
131.3856201171875 -710.784912109375 -9.2386474609375
199.55712890625 67.2781982421875 168.536865234375
-116.074951171875 -87.2203369140625 164.83203125
561.47802734375 -247.8333740234375 -75.263427734375
-134.570556640625 17.71728515625 218.88482666015625
343.836181640625 1756.8839111328125 -188.060302734375
999.5186767578125 -1794.8468017578125 225.3990478515625
-488.28466796875 -224.308837890625 -21.8338623046875
144.30419921875 -547.4656982421875 11.09521484375
-643.699951171875 -349.33087158203125 -235.9129638671875
-863.4853515625 231.3497314453125 38.5283203125
2092.77001953125 -1267.52490234375 69.4490966796875
-400.0556640625 -446.1082763671875 -88.992919921875
170.0234375 227.141845703125 159.080078125
445.992431640625 -733.8951416015625 -35.732421875
584.4852294921875 -577.187255859375 -30.5877685546875
-127.025390625 -95.20751953125 140.17822265625
-514.6962890625 246.1583251953125 172.2818603515625
-2449.301025390625 742.3387451171875 82.7757568359375
-346.1629638671875 -263.170654296875 37.253662109375
183.1927490234375 -266.62939453125 -23.0281982421875
267.7796630859375 -677.16357421875 -13.9317626953125
229.5546875 209.6258544921875 123.5679931640625
674.90234375 -935.2005615234375 -1.369140625
573.728759765625 -805.5623779296875 -30.841064453125
-1276.982421875 1118.1632080078125 91.0255126953125
-411.84765625 -257.8499755859375 9.482177734375
342.70770263671875 -1513.2198486328125 210.4888916015625
-813.76953125 72.156005859375 47.5657958984375
146.798095703125 -325.15203857421875 -7.476806640625
582.500732421875 -734.3718872070312 -38.1087646484375
996.6881103515625 -593.28857421875 -138.306884765625
109.197265625 -398.38348388671875 -18.6612548828125
185.2607421875 -10.0184326171875 150.0487060546875
281.81591796875 -672.2889404296875 -16.727294921875
1733.761962890625 1600.7022705078125 -136.7977294921875
95.634521484375 -364.11065673828125 -22.5474853515625
601.9174194335938 -1839.048095703125 242.86004638671875
-1714.53955078125 206.5450439453125 -41.074462890625
-1562.3330078125 921.9774169921875 89.4306640625
-205.249267578125 366.9993896484375 196.4139404296875
951.0479736328125 -521.6298828125 -121.1810302734375
368.6334228515625 123.9031982421875 121.4332275390625
-662.1766357421875 -432.6624755859375 -282.9632568359375
-79.5777587890625 -183.9051513671875 120.02685546875
-146.1580810546875 -392.17950439453125 52.2259521484375
1754.7242431640625 1557.1590576171875 -140.9888916015625
-87.763671875 415.3526611328125 221.4454345703125
-57.8133544921875 -58.891845703125 205.1429443359375
1083.5018310546875 -960.8004760742188 -50.6243896484375
272.298828125 91.417236328125 146.8428955078125
-14.9215087890625 -480.2076416015625 54.3343505859375
530.462646484375 35.9427490234375 49.742919921875
-1209.147705078125 1142.3155517578125 81.3236083984375
661.8311767578125 -120.78857421875 -94.0538330078125
-1055.619140625 -1692.703125 -328.5291748046875
462.0609130859375 -675.8961791992188 -34.668701171875
32.242431640625 451.5322265625 162.2852783203125
1534.9693603515625 -372.1881103515625 -313.1522216796875
515.61376953125 -210.9854736328125 -59.5699462890625
523.3660888671875 89.9888916015625 81.2821044921875
104.465087890625 -651.0032958984375 -3.0692138671875
62.5028076171875 463.6181640625 166.3704833984375
202.7509765625 -1151.429931640625 89.4537353515625
52.951171875 -497.7462158203125 -1.561767578125
96.185791015625 475.6949462890625 162.0919189453125
529.00927734375 -170.5670166015625 -54.132568359375
-2518.925048828125 599.0218505859375 43.3575439453125
536.3433837890625 45.4217529296875 52.1390380859375
133.3719482421875 215.0731201171875 170.6126708984375
509.54754638671875 -213.1319580078125 -58.6168212890625
-1111.5830078125 -435.0343017578125 -92.804931640625
-434.705322265625 685.395263671875 139.8509521484375
272.7149658203125 -1232.03515625 118.1724853515625
285.295654296875 20.1683349609375 100.9141845703125
317.244140625 -659.0455932617188 -17.7589111328125
297.048583984375 23.2640380859375 92.25
-217.890380859375 568.5084228515625 191.777587890625
-422.7332763671875 -302.5377197265625 -29.4259033203125
-117.16015625 160.0986328125 204.676513671875
373.608154296875 -1546.60205078125 211.5582275390625
-216.082763671875 569.2569580078125 192.1917724609375
-1640.317626953125 1055.2135009765625 126.3768310546875
-1150.912841796875 383.1385498046875 -60.7723388671875
-228.767578125 598.0611572265625 186.4261474609375
1277.033935546875 -874.9974365234375 -80.578125
-1228.345458984375 567.9898681640625 -15.025390625
267.241943359375 251.21533203125 77.57275390625
-1636.88134765625 1056.5045166015625 126.3179931640625
243.003662109375 -545.5822143554688 4.9593505859375
2180.2158203125 -1241.90380859375 21.580322265625
216.733154296875 147.259765625 197.2574462890625
243.1561279296875 2151.20654296875 -70.1484375
972.7581787109375 -5.833251953125 -185.0208740234375
516.1827392578125 -636.5618896484375 -24.367431640625
-809.802978515625 -475.74560546875 -422.3372802734375
1100.1097412109375 -918.9618530273438 -43.8740234375
-84.095947265625 -70.988525390625 191.337158203125
148.775390625 -87.180908203125 186.26220703125
-577.826171875 -455.434326171875 -191.127197265625
-146.801513671875 1518.4349365234375 358.3128662109375
356.18212890625 -697.3516845703125 -25.9969482421875
76.9381103515625 508.078369140625 174.15771484375
-231.725830078125 113.88623046875 186.2901611328125
603.0856323242188 -726.9502563476562 -40.4599609375
466.4769287109375 254.5107421875 57.8216552734375
-164.220703125 349.5330810546875 206.1170654296875
-1659.85791015625 371.949462890625 -37.8602294921875
-803.52978515625 -486.02288818359375 -426.5692138671875
-1146.145751953125 1026.3485107421875 52.6114501953125
980.7755126953125 195.620361328125 -240.1405029296875
354.26971435546875 -454.180908203125 -10.7508544921875
253.1678466796875 -1149.079345703125 92.8311767578125
520.7621459960938 -651.7194213867188 -22.051025390625
997.4530029296875 201.58203125 -242.3734130859375
-351.4493408203125 650.459228515625 156.328369140625
223.5399169921875 -588.4744873046875 -1.61962890625
376.52288818359375 -655.7156982421875 -29.603515625
-295.486328125 -96.5443115234375 97.8173828125
9.648193359375 1050.8287353515625 298.9136962890625
-1135.67529296875 -602.65380859375 -217.335693359375
-672.8524169921875 -687.999267578125 -432.1834716796875
-772.907958984375 1026.6287841796875 51.0692138671875
4.2606201171875 279.655517578125 234.25994873046875
131.500244140625 -710.5299072265625 -9.1920166015625
298.533935546875 -700.68603515625 -18.137451171875
134.2950439453125 286.2847900390625 182.5250244140625
447.02801513671875 -716.1890258789062 -35.3280029296875
548.4495849609375 401.84130859375 -81.3077392578125
219.673583984375 -616.2489013671875 -7.7159423828125
-1042.54248046875 -511.2139892578125 -179.3245849609375
314.108642578125 266.9029541015625 64.4615478515625
-76.974365234375 385.80029296875 227.01190185546875
412.821044921875 -728.6217041015625 -32.0611572265625
975.154541015625 -530.3727416992188 -125.1080322265625
1423.23974609375 -1625.643798828125 282.4105224609375
-1221.854736328125 287.7806396484375 -57.6453857421875
1000.739990234375 -62.1796875 -171.7340087890625
-1333.170166015625 1580.3109130859375 93.4119873046875
554.381103515625 1117.1812744140625 -376.056396484375
230.07373046875 199.1259765625 133.6549072265625
-466.894287109375 1890.7427978515625 191.613037109375
238.197265625 -733.6416015625 -17.25830078125
412.3651123046875 341.1849365234375 81.1668701171875
13.4639892578125 2103.45263671875 180.9349365234375
647.5261840820312 -854.0750732421875 -22.1348876953125
346.53546142578125 -666.304931640625 -24.752197265625
-287.9267578125 129.2447509765625 199.8826904296875
-585.27490234375 -430.076416015625 -187.4442138671875
74.753662109375 -506.4827880859375 0.1422119140625
250.86767578125 48.1026611328125 142.329833984375
291.355224609375 -478.346435546875 -13.072509765625
-402.1019287109375 -329.04541015625 -28.2144775390625
311.21484375 -696.478271484375 -21.921630859375
-781.681640625 -459.37060546875 -417.6578369140625
-745.642822265625 -764.4918823242188 -540.5850830078125
1740.080810546875 -629.49658203125 -293.4967041015625
-360.7587890625 -233.6080322265625 40.9892578125
-68.3662109375 285.0396728515625 223.7398681640625
-285.611083984375 129.9403076171875 198.7242431640625
495.22686767578125 264.5594482421875 52.5067138671875
-501.69921875 -430.65399169921875 -130.6041259765625
548.2665405273438 -792.4554443359375 -28.3182373046875
510.89666748046875 -264.8155517578125 -61.441162109375
16.608154296875 212.911376953125 218.79864501953125
135.421630859375 -467.5496826171875 -8.0128173828125
-242.853759765625 -214.779296875 96.9281005859375
1337.6234130859375 -229.044189453125 -289.1236572265625
-412.655029296875 -307.8724365234375 -25.2957763671875
-439.099853515625 -349.6483154296875 -70.5740966796875
287.9952392578125 -635.5272216796875 -17.23193359375
399.524658203125 -966.668212890625 22.46142578125
-752.728515625 -451.56451416015625 -405.7447509765625
165.8621826171875 -799.3673095703125 2.823486328125
2219.64794921875 251.6971435546875 -231.2724609375
-449.8292236328125 -346.48480224609375 -74.9681396484375
140.946533203125 -548.6343994140625 11.7471923828125
533.206787109375 -792.020263671875 -28.7889404296875
135.4697265625 -568.1888427734375 9.5274658203125
-48.8131103515625 -314.248779296875 94.5433349609375
560.9721069335938 -725.635986328125 -40.481689453125
772.7434692382812 467.0789794921875 -207.1600341796875
685.1187744140625 -949.9896850585938 -10.3687744140625
180.0712890625 183.0225830078125 182.215576171875
-217.75439453125 -202.6795654296875 113.62548828125
-272.68310546875 28.4664306640625 180.3948974609375
-786.710205078125 -760.6638793945312 -535.4434814453125
484.7733154296875 36.18359375 51.5130615234375
1754.8267822265625 -890.0582275390625 -230.1396484375
-10.266357421875 1993.1597900390625 240.3499755859375
560.9986572265625 -725.7413330078125 -40.4327392578125
881.5599365234375 92.1129150390625 -220.673583984375
0.8359375 439.4493408203125 161.0001220703125
-1067.46630859375 1541.3997802734375 84.2430419921875
-95.2196044921875 1886.5338134765625 381.136474609375
-107.2777099609375 373.7144775390625 223.03155517578125
1553.43505859375 1413.9874267578125 -223.2022705078125
1378.176025390625 -489.67486572265625 -288.8299560546875
-718.044921875 -753.036376953125 -529.30419921875
-232.329345703125 -173.1170654296875 117.309814453125
273.9791259765625 -727.5489501953125 -20.19970703125
1094.677978515625 -938.6114501953125 -46.0753173828125
997.2352294921875 338.0042724609375 -252.0260009765625
-162.795654296875 -178.4927978515625 135.3885498046875
281.5965576171875 -105.8511962890625 155.073486328125
300.5625 -335.94287109375 -7.2354736328125
-730.24072265625 -700.2673950195312 -465.3480224609375
-45.937255859375 -385.47064208984375 73.3470458984375
139.912353515625 -620.7740478515625 -5.84814453125
1514.125244140625 -441.37109375 -308.918212890625
144.4610595703125 -362.72857666015625 -21.5211181640625
630.2979736328125 -120.5023193359375 -89.4622802734375
100.3228759765625 173.47119140625 205.2735595703125
-442.755126953125 -198.6754150390625 21.4337158203125
711.0205688476562 -291.7762451171875 -56.1146240234375
139.77490234375 -654.274658203125 0.9110107421875
545.0738525390625 -731.6768798828125 -40.6475830078125
-148.72802734375 -61.7801513671875 185.9444580078125
550.66162109375 -215.8370361328125 -65.0887451171875
558.7692260742188 45.5576171875 42.72119140625
-170.5447998046875 2192.36572265625 312.55279541015625
99.096923828125 -156.2525634765625 153.943359375
-240.32861328125 212.498291015625 175.7677001953125
124.8309326171875 -1386.3262939453125 99.7093505859375
444.233642578125 -681.931884765625 -30.120361328125
-114.9971923828125 59.3553466796875 217.15423583984375
146.94091796875 -126.27587890625 169.791015625
-139.2506103515625 -1305.8138427734375 -70.81005859375
1013.1514892578125 -604.2833251953125 -138.1307373046875
154.2359619140625 13.5419921875 155.1549072265625
-67.2763671875 2028.8870849609375 341.1885986328125
1676.474853515625 -517.9290771484375 -308.7423095703125
-839.591796875 172.2386474609375 44.0042724609375
-827.423583984375 -814.4124145507812 -560.0853271484375
142.6953125 -697.9197998046875 -4.6246337890625
141.367919921875 -541.5787963867188 11.9119873046875
1250.1363525390625 -866.2471923828125 -69.83154296875
371.755126953125 -726.9169311523438 -32.1204833984375
423.1044921875 2208.2900390625 -140.692138671875
-818.55810546875 -530.7022705078125 -432.669921875
-1074.066650390625 -268.37255859375 -0.0811767578125
-140.963623046875 -403.24609375 51.4866943359375
-391.1060791015625 -323.05255126953125 -16.4609375
186.6434326171875 25.6221923828125 153.9932861328125
278.364013671875 -1221.49267578125 120.4725341796875
1144.128173828125 -16.6715087890625 -227.8021240234375
-625.1656494140625 -408.42755126953125 -217.3411865234375
-340.4697265625 620.9063720703125 161.4298095703125
-720.358642578125 -799.3875122070312 -564.7027587890625
-224.4906005859375 325.3604736328125 197.3336181640625
1649.157958984375 -116.0467529296875 -320.3616943359375
-875.923095703125 -1359.66064453125 -398.847900390625
1283.3438720703125 -854.1690673828125 -72.9476318359375
-855.896728515625 -625.5464477539062 -425.7855224609375
376.75396728515625 -1514.580078125 214.82373046875
48.5179443359375 -346.62786865234375 -17.3739013671875
410.185302734375 -729.6146850585938 -32.03369140625
111.5762939453125 143.9173583984375 209.7059326171875
-676.354248046875 -135.6011962890625 -113.61083984375
-90.583740234375 172.1944580078125 217.76416015625
480.866943359375 294.12158203125 55.6658935546875
592.4990234375 -520.7564697265625 -20.0367431640625
558.0189208984375 -195.0113525390625 -60.0174560546875
-708.863525390625 -724.83642578125 -491.0755615234375
194.738525390625 28.6680908203125 153.884765625
1700.0462646484375 -1529.0494384765625 230.2406005859375
336.3216552734375 -722.5651245117188 -28.8701171875
-709.399658203125 -880.821044921875 -594.631103515625
241.5390625 -704.0220947265625 -11.87451171875
1256.3480224609375 -981.7631225585938 -51.281005859375
-868.71240234375 -598.8709106445312 -418.6165771484375
-1575.805908203125 410.1214599609375 -53.53076171875
-23.978759765625 -465.4217529296875 60.5013427734375
-409.802490234375 1908.6436767578125 214.956298828125
809.5606689453125 347.0135498046875 -181.4114990234375
-734.760986328125 -778.1596069335938 -552.4261474609375
-119.4320068359375 -238.89013671875 94.619873046875
-1022.1552734375 87.30126953125 35.3758544921875
109.222900390625 -358.0634765625 -16.7369384765625
-980.42724609375 378.47216796875 -16.8726806640625
-433.0810546875 -269.9154052734375 -16.3751220703125
-839.538330078125 1187.6829833984375 39.89306640625
197.418701171875 -684.0267333984375 -16.7486572265625
1014.243408203125 140.0115966796875 -235.43505859375
2012.536865234375 1009.4847412109375 -179.396240234375
-205.8460693359375 123.8350830078125 187.2994384765625
-570.317626953125 -470.55633544921875 -193.1424560546875
-334.86474609375 -221.5103759765625 55.7445068359375
1357.2744140625 -909.9254150390625 -56.732666015625
102.7904052734375 -651.580810546875 -2.7091064453125
-20.594970703125 -428.73968505859375 66.26904296875
305.2315673828125 -407.1695556640625 -32.8131103515625
-449.7728271484375 -241.6995849609375 -6.0550537109375
-867.785888671875 -600.661865234375 -418.946044921875
-820.877685546875 41.92724609375 47.96826171875
-320.227783203125 -108.64501953125 80.2454833984375
221.9189453125 351.1527099609375 164.6534423828125
720.192626953125 -917.0712890625 5.00439453125
432.25787353515625 87.8643798828125 78.5040283203125
-38.4193115234375 366.4466552734375 230.61456298828125
-684.771240234375 -631.11279296875 -377.8121337890625
523.97314453125 365.2198486328125 -35.5040283203125
-37.1207275390625 1852.5960693359375 22.5003662109375
-364.415283203125 -346.50286865234375 -10.343994140625
-613.0849609375 -569.8630981445312 -275.0888671875
366.725341796875 -383.0003662109375 -27.0203857421875
-30.0753173828125 -521.835205078125 45.2403564453125
-1206.60986328125 -417.367919921875 -80.5645751953125
798.9555053710938 -166.9400634765625 -132.69921875
217.202392578125 240.19921875 128.3426513671875
271.0445556640625 -641.5653076171875 -14.825927734375
314.1162109375 233.7332763671875 72.99072265625
-1082.253173828125 -1703.3642578125 -332.2763671875
748.6505126953125 330.8441162109375 -137.3145751953125
513.7160034179688 -464.98712158203125 -24.3939208984375
278.1900634765625 304.6138916015625 84.22412109375
-235.96337890625 146.509765625 184.5201416015625
379.577880859375 -671.6353759765625 -28.4761962890625
647.0130615234375 -727.468505859375 -39.73486328125
284.91845703125 -1219.098876953125 119.9200439453125
-1793.433349609375 -1010.072021484375 -356.0283203125
-103.6990966796875 -41.4124755859375 207.308837890625
204.75732421875 -701.3287353515625 -15.9896240234375
-1089.318115234375 -339.1512451171875 -38.201171875
-1073.825927734375 1676.9522705078125 83.9139404296875
331.381591796875 417.9039306640625 105.8665771484375
-22.3798828125 304.5443115234375 237.24609375
233.7584228515625 -92.068359375 169.9847412109375
526.8967895507812 -188.749267578125 -54.97705078125
323.645751953125 -745.03857421875 -31.6048583984375
507.6712646484375 27.4439697265625 50.5396728515625
1333.90966796875 594.0213623046875 -312.1356201171875
-115.08447265625 231.3072509765625 213.77197265625
1851.2130126953125 -784.4028930664062 -251.3363037109375
-334.41796875 419.414794921875 182.1685791015625
458.44879150390625 -1722.94384765625 229.21868896484375
228.01025390625 -748.9160766601562 -21.41015625
1136.3843994140625 47.916015625 -237.3426513671875
462.45849609375 -1721.474365234375 228.9130859375
-1095.3466796875 336.1097412109375 -54.6622314453125
-1550.483642578125 -436.93701171875 -111.243896484375
-2265.783447265625 -152.19091796875 -128.248291015625
42.2313232421875 -93.8729248046875 180.5933837890625
-184.3876953125 307.8963623046875 209.2991943359375
338.63720703125 1481.9703369140625 -168.3515625
-763.219482421875 -790.2503662109375 -560.9146728515625
569.8909301757812 379.8792724609375 -72.509521484375
-691.907958984375 -850.503662109375 -579.0242919921875
183.1953125 -75.1060791015625 180.1834716796875
135.812255859375 183.671142578125 198.6058349609375
-390.395751953125 -174.4815673828125 49.5487060546875
1481.58154296875 -1601.466064453125 295.90643310546875
-855.324462890625 717.6590576171875 39.73193359375
570.5458374023438 -1765.1552734375 239.69219970703125
1007.4561767578125 407.9249267578125 -261.7916259765625
-793.608154296875 -721.3359985351562 -493.72021484375
177.9169921875 -747.3380126953125 -24.6595458984375
-702.86962890625 -599.3156127929688 -367.9239501953125
-233.349365234375 103.2725830078125 185.6373291015625
-794.288330078125 -1075.023193359375 -541.6654052734375
2046.1768798828125 -1346.358154296875 119.4739990234375
-610.9678955078125 1158.2435302734375 59.6685791015625
-127.516357421875 -165.054931640625 125.7330322265625
-789.852294921875 -467.987548828125 -420.991943359375
402.00323486328125 -750.4381103515625 -35.089111328125
416.94915771484375 -400.4913330078125 -39.786865234375
621.60498046875 -544.2745361328125 -20.21435546875
1107.9168701171875 -1687.422119140625 208.77294921875
-289.2724609375 58.0343017578125 189.0023193359375
1760.532958984375 761.1065673828125 -275.748046875
-1107.284912109375 -209.2364501953125 17.2298583984375
799.4720458984375 -1867.3128662109375 246.055908203125
-1419.54931640625 143.87646484375 -58.3009033203125
-232.433349609375 -172.882080078125 117.3104248046875
-489.17333984375 -222.8851318359375 -21.1995849609375
-1801.919921875 -995.031494140625 -351.53271484375
176.088623046875 -642.2049560546875 -9.79638671875
194.541748046875 -343.2784423828125 -18.2999267578125
59.041015625 470.9827880859375 166.8746337890625
-276.1878662109375 -1117.927001953125 -303.765380859375
-379.34375 436.8919677734375 181.98876953125
-671.5859375 244.7906494140625 101.6446533203125
-411.76220703125 -257.805419921875 9.5606689453125
300.711669921875 -561.0912475585938 -0.3179931640625
-377.1376953125 294.4578857421875 148.2608642578125
379.6768798828125 -341.3443603515625 -12.5689697265625
465.3944091796875 -1685.875244140625 228.82232666015625
490.53741455078125 -1984.73046875 242.63714599609375
-409.431396484375 152.1163330078125 198.84033203125
991.8624877929688 -64.9315185546875 -167.841552734375
1246.95654296875 -966.9761962890625 -44.2969970703125
111.7713623046875 -630.7596435546875 -1.6058349609375
-737.915771484375 -732.4480590820312 -502.9559326171875
1036.6839599609375 2437.46142578125 -159.7681884765625
88.2431640625 -292.8768310546875 9.6832275390625
-526.392333984375 275.7132568359375 168.931396484375
-278.1429443359375 -268.5423583984375 59.031005859375
638.853271484375 -627.586181640625 -43.1834716796875
431.6292724609375 382.470458984375 77.9234619140625
373.19482421875 85.4412841796875 88.839599609375
173.84619140625 -749.02001953125 -25.5693359375
649.4588623046875 2149.80712890625 -179.9013671875
-146.86962890625 -1272.69921875 -87.9857177734375
102.5986328125 -104.7969970703125 185.3309326171875
557.566162109375 -194.3070068359375 -59.671875
798.52783203125 -96.6966552734375 -116.434814453125
-77.26611328125 -29.3162841796875 220.747314453125
766.79296875 -179.02099609375 -132.13671875
-425.649658203125 1942.8900146484375 216.6875
326.35015869140625 306.8109130859375 69.4271240234375
-160.1236572265625 -927.141845703125 -246.9234619140625
1375.927490234375 -145.765625 -290.526123046875
320.87939453125 304.9290771484375 70.632568359375
457.6380615234375 -1710.5335693359375 228.873291015625
-136.9093017578125 811.2369384765625 224.3251953125
1073.3116455078125 -565.3487548828125 -145.0443115234375
515.1072998046875 -636.9424438476562 -24.198486328125
-66.238525390625 356.2479248046875 232.70904541015625
-407.15283203125 -370.722412109375 -61.9722900390625
403.81488037109375 410.049560546875 101.0135498046875
-764.3505859375 -130.1759033203125 -86.571533203125
256.491455078125 188.5748291015625 144.4769287109375
315.739990234375 -642.7330322265625 -20.12890625
1349.131591796875 -930.7489624023438 -59.884033203125
-39.9713134765625 297.130615234375 232.3839111328125
-41.3050537109375 125.1827392578125 239.239013671875
1354.08349609375 -929.0013427734375 -60.69189453125
2219.66455078125 -1360.17138671875 52.47314453125
46.496826171875 155.1431884765625 265.595458984375
598.872802734375 -728.332275390625 -39.10107421875
375.283203125 -1550.1832275390625 211.33349609375
1851.418701171875 -984.0769653320312 -182.3868408203125
-114.90869140625 1702.4681396484375 354.8133544921875
1330.572998046875 990.2371826171875 -313.9359130859375
443.8055419921875 151.792724609375 117.89599609375
245.357177734375 -625.967041015625 -14.4464111328125
67.815185546875 -347.17352294921875 -18.4002685546875
1309.3033447265625 -865.0579833984375 -79.0867919921875
83.20654296875 104.3670654296875 246.17083740234375
113.86181640625 -319.132080078125 0.411865234375
120.12255859375 -281.867919921875 2.9329833984375
-446.282470703125 -353.2611083984375 -76.3160400390625
268.649658203125 286.681640625 80.3397216796875
-768.15576171875 -1190.849853515625 -480.3250732421875
-830.515869140625 3.2974853515625 44.8848876953125
444.98883056640625 152.279296875 118.1453857421875
-104.768798828125 29.804443359375 224.0911865234375
233.52392578125 -95.1236572265625 169.8922119140625
536.9140625 1686.9405517578125 -220.02490234375
1690.260498046875 454.0684814453125 -304.1676025390625
123.50244140625 -280.8043212890625 1.552978515625
131.054931640625 -331.193359375 -8.0213623046875
-156.291259765625 248.7742919921875 204.5040283203125
-1442.058349609375 1128.9844970703125 118.4261474609375
-819.6689453125 663.5272216796875 48.59912109375
-460.9969482421875 -787.48388671875 -391.3994140625
1655.844970703125 -416.94781494140625 -317.295166015625
20.929443359375 254.6522216796875 220.52117919921875
1014.4754638671875 -516.4320068359375 -131.1124267578125
342.788330078125 -1562.26318359375 212.708251953125
-1203.661376953125 543.0645751953125 -13.4990234375
8.2464599609375 3.0440673828125 250.10968017578125
481.83111572265625 -1988.1319580078125 241.9473876953125
865.3851318359375 -1843.155517578125 241.04974365234375
-206.601806640625 538.9547119140625 196.124267578125
408.09271240234375 234.0792236328125 68.4549560546875
210.115234375 239.201416015625 139.1402587890625
120.9573974609375 244.6297607421875 169.0179443359375
150.613525390625 -592.2490234375 -1.5003662109375
100.62158203125 -687.1820068359375 -4.4930419921875
1201.26220703125 -134.9185791015625 -239.69140625
884.9107055664062 230.5902099609375 -225.805419921875
172.5867919921875 -814.1470947265625 2.3564453125
365.69970703125 -1485.0269775390625 209.90478515625
1489.020751953125 -382.25689697265625 -311.4345703125
-225.806396484375 -244.3485107421875 87.2015380859375
2141.79150390625 -1383.8397216796875 89.6370849609375
190.826904296875 -671.7679443359375 -13.8800048828125
-772.459716796875 -778.0121459960938 -551.544189453125
-36.0433349609375 -88.4737548828125 183.87548828125
475.12432861328125 301.8948974609375 61.308349609375
228.421875 -976.676025390625 41.5394287109375
1184.697021484375 -71.3646240234375 -234.4556884765625
-562.6826171875 -484.99853515625 -196.201416015625
37.04833984375 158.3336181640625 261.7254638671875
844.9769287109375 -385.8951416015625 -99.6693115234375
149.09326171875 84.769775390625 181.889892578125
1294.7415771484375 -842.5365600585938 -67.81884765625
-355.0421142578125 107.8529052734375 204.8387451171875
-98.3990478515625 860.0218505859375 222.4805908203125
-534.1986083984375 577.94677734375 134.7161865234375
256.8983154296875 -387.3072509765625 -27.2366943359375
-802.6865234375 -576.5023193359375 -421.9644775390625
383.56097412109375 16.255126953125 58.6551513671875
-15.3251953125 1965.4608154296875 100.3004150390625
35.6885986328125 1667.0465087890625 -16.5062255859375
554.273681640625 -1771.1951904296875 240.44000244140625
200.8994140625 1315.3663330078125 -17.5184326171875
428.61322021484375 -61.9393310546875 111.6793212890625
231.508544921875 -567.650634765625 1.9576416015625
307.9371337890625 1472.1239013671875 -157.00732421875
917.5255126953125 -533.7071533203125 -117.2955322265625
291.19873046875 -478.4100341796875 -13.1004638671875
166.5355224609375 -116.7520751953125 174.7939453125
324.893798828125 1051.1788330078125 -242.5078125
1738.06396484375 -697.6812133789062 -283.341796875
-520.49658203125 -389.5633544921875 -129.057373046875
321.83721923828125 -466.260986328125 -9.5279541015625
66.9483642578125 137.0550537109375 273.984375
295.757080078125 136.9403076171875 160.601806640625
-1561.943115234375 653.3533935546875 14.24658203125
368.9635009765625 358.657958984375 77.2620849609375
265.8770751953125 -712.7655029296875 -16.3665771484375
-212.234130859375 224.590087890625 185.14599609375
158.825927734375 -802.143798828125 2.0906982421875
-784.531982421875 1228.1348876953125 43.9473876953125
426.8916015625 240.4085693359375 63.4320068359375
165.197265625 -455.46240234375 -2.74267578125
-495.961669921875 -151.65283203125 9.5576171875
434.633056640625 55.3533935546875 62.2603759765625
1380.8238525390625 -155.3720703125 -292.1153564453125
6.359375 -96.9024658203125 180.4422607421875
382.81463623046875 329.0970458984375 75.3463134765625
345.70947265625 1049.6234130859375 -302.992919921875
288.9122314453125 330.1361083984375 88.5838623046875
358.6590576171875 -1541.2967529296875 211.9969482421875
1340.5972900390625 -915.9642333984375 -54.9947509765625
-1304.753662109375 567.4874267578125 -17.2427978515625
-14.6756591796875 1963.7843017578125 238.577880859375
-9.7666015625 -352.55517578125 86.039794921875
-211.4615478515625 53.851806640625 194.6484375
765.2182006835938 -107.8028564453125 -114.11962890625
-214.5706787109375 52.644775390625 194.4512939453125
239.3182373046875 -546.8262939453125 5.92333984375
-92.065185546875 -154.3482666015625 118.6099853515625
-436.0498046875 -435.37164306640625 -103.734130859375
724.7930908203125 389.2904052734375 -147.1414794921875
232.2706298828125 -603.2596435546875 -6.98876953125
82.371337890625 71.720947265625 176.8599853515625
131.603759765625 -710.705078125 -9.2559814453125
-529.287353515625 -318.32574462890625 -93.4071044921875
-87.35791015625 243.4000244140625 224.0498046875
-1391.881103515625 642.5184326171875 -25.338134765625
21.390380859375 -22.60302734375 245.6912841796875
-108.2144775390625 -195.9954833984375 111.9737548828125
-134.8553466796875 361.6214599609375 212.3905029296875
-204.949462890625 1553.3035888671875 280.478759765625
679.860595703125 -303.8597412109375 -58.00146484375
-55.358642578125 -155.0430908203125 120.74755859375
1231.08251953125 -973.0171508789062 -44.52197265625
955.7322998046875 53.2593994140625 -207.2791748046875
-677.278564453125 -373.57501220703125 -309.9224853515625
-187.21240234375 -119.3802490234375 131.191650390625
1819.808837890625 -865.8983154296875 -232.87060546875
538.6021728515625 -1777.2366943359375 239.72015380859375
459.478271484375 100.3177490234375 89.62939453125
636.9944458007812 -731.029052734375 -38.259765625
-450.597900390625 -240.3448486328125 -5.5015869140625
-1250.328369140625 276.9207763671875 -58.2041015625
-198.2403564453125 10.4765625 200.1063232421875
214.4110107421875 1135.8751220703125 126.2174072265625
-30.982421875 -415.0341796875 68.7340087890625
337.1005859375 -395.08795166015625 -32.6588134765625
234.80712890625 -689.2423095703125 -11.389892578125
920.5667724609375 -549.8787231445312 -117.7508544921875
118.297607421875 -607.200927734375 2.543212890625
157.265869140625 1492.2984619140625 -104.572998046875
-271.91064453125 1873.0521240234375 280.8555908203125
147.0289306640625 -669.372802734375 -2.882568359375
1538.252685546875 -500.48284912109375 -304.0140380859375
2031.8739013671875 -991.2105102539062 -134.642333984375
260.7384033203125 -1245.9630126953125 116.942138671875
405.33349609375 -1452.1209716796875 214.134765625
999.7513427734375 -609.1825561523438 -137.035888671875
-462.322509765625 -323.69464111328125 -69.0513916015625
-1467.979248046875 616.1759033203125 -9.632568359375
392.939208984375 169.2855224609375 132.2332763671875
-774.8056640625 -564.409912109375 -412.063720703125
-334.13330078125 -79.0843505859375 82.2940673828125
-99.1033935546875 272.955078125 220.8199462890625
-1226.484619140625 534.3160400390625 -14.2269287109375
176.626220703125 -534.40380859375 9.0809326171875
1586.6373291015625 -1494.032470703125 287.44854736328125
449.11767578125 188.60107421875 119.795166015625
-511.802734375 353.384765625 140.4205322265625
-294.7626953125 -167.7603759765625 81.8807373046875
-373.1650390625 539.6898193359375 162.4461669921875
